ncols         338
nrows         31
xllcorner     736705.555115
yllcorner     9842435.19891
cellsize      5
NODATA_value  -9999
16.06875 16.31115 16.53726 16.7485 16.94639 17.13245 17.30797 17.4739 17.6308 17.77878 17.91754 18.04641 18.16448 18.27069 18.36406 18.44377 18.50946 18.56103 18.59627 18.61257 18.60848 18.58366 18.53886 18.47585 18.39731 18.30675 18.20841 18.10709 18.00802 17.91669 17.83866 17.77934 17.74379 17.73648 17.76106 17.82014 17.91505 18.04571 18.2105 18.40616 18.62781 18.869 19.12185 19.37715 19.62464 19.87433 20.13498 20.39456 20.64228 20.86884 21.06657 21.22955 21.35373 21.43685 21.47845 21.47971 21.44331 21.3732 21.27435 21.15253 21.01401 20.86534 20.71305 20.56349 20.42251 20.29531 20.18622 20.09851 20.03422 19.99401 19.97701 19.98076 20.00111 20.03664 20.08975 20.16146 20.25154 20.35866 20.48051 20.61398 20.75531 20.90029 21.04439 21.18294 21.31132 21.42507 21.52008 21.5927 21.63986 21.65918 21.64904 21.60863 21.538 21.4381 21.31072 21.15854 20.98508 20.79464 20.59231 20.38389 20.17447 19.955 19.72499 19.48746 19.24498 18.99962 18.753 18.50626 18.26021 18.01534 17.77199 17.53037 17.29074 17.05343 16.81894 16.58802 16.36167 16.14118 15.92813 15.72432 15.53175 15.3525 15.18864 15.04211 14.91459 14.80735 14.72115 14.65613 14.61208 14.5902 14.59068 14.61256 14.65415 14.71321 14.78715 14.87328 14.96888 15.07144 15.17869 15.28874 15.40007 15.51159 15.62258 15.73268 15.84181 15.9501 16.05782 16.16531 16.2729 16.38091 16.48956 16.59893 16.70895 16.81938 16.9298 17.03959 17.14879 17.25728 17.36199 17.46021 17.54979 17.62918 17.69743 17.75421 17.79982 17.83508 17.86137 17.88052 17.89474 17.90657 17.91882 17.93443 17.95641 17.98772 18.03115 18.08919 18.1639 18.2568 18.36866 18.49945 18.64819 18.81289 18.99051 19.17695 19.37033 19.57214 19.78059 19.99335 20.20778 20.42104 20.63026 20.83265 21.02561 21.20682 21.37432 21.52655 21.66237 21.7811 21.88248 21.96665 22.03407 22.08552 22.12194 22.14445 22.15423 22.15247 22.14033 22.1189 22.08917 22.052 22.00811 21.95808 21.90067 21.83647 21.76762 21.696 21.62319 21.55044 21.47867 21.40847 21.3401 21.27352 21.20843 21.14431 21.08047 21.01608 20.95026 20.88209 20.81075 20.73547 20.65568 20.57103 20.48141 20.38702 20.28843 20.18654 20.08268 19.97854 19.87617 19.7777 19.68028 19.58437 19.49224 19.40585 19.32687 19.25661 19.19608 19.14598 19.10666 19.07821 19.06038 19.05273 19.05453 19.06491 19.08286 19.10726 19.13698 19.1709 19.20795 19.24717 19.2877 19.32884 19.37005 19.41095 19.45132 19.4911 19.53036 19.56919 19.60759 19.64682 19.68802 19.73201 19.77928 19.83001 19.88407 19.94103 20.00022 20.06067 20.12122 20.1805 20.23702 20.28921 20.33544 20.37415 20.40388 20.42335 20.43154 20.42775 20.4117 20.38356 20.34404 20.2944 20.23656 20.17301 20.10694 20.04088 19.97232 19.90056 19.82546 19.74709 19.66565 19.58149 19.49504 19.40676 19.31717 19.22679 19.13617 19.04584 18.95636 18.8683 18.78225 18.69882 18.61864 18.54237 18.4707 18.40428 18.34376 18.28973 18.24271 18.20306 18.17101 18.14659 18.12956 18.11938 18.11555 18.11795 18.12637 18.14053 18.16013 18.18479 18.21409 18.24761 18.28487 18.3254 18.3687 18.41431 18.46176 18.5106
15.91231 16.15561 16.38481 16.60098 16.80534 16.999 17.18288 17.35755 17.52321 17.67962 17.82616 17.96188 18.08563 18.19619 18.29244 18.37358 18.43931 18.48971 18.52264 18.53551 18.52688 18.49654 18.44536 18.37525 18.2891 18.1906 18.08419 17.97488 17.86808 17.76948 17.6848 17.61963 17.57917 17.56798 17.58982 17.6473 17.74179 17.87317 18.03973 18.23816 18.46347 18.70915 18.9672 19.2284 19.48243 19.73941 20.00804 20.27608 20.53255 20.76802 20.97475 21.14679 21.28009 21.37242 21.42338 21.4342 21.40759 21.34753 21.25901 21.14775 21.02 20.88222 20.74086 20.60215 20.47181 20.35491 20.25564 20.17712 20.12128 20.08865 20.07832 20.08776 20.11283 20.15208 20.20782 20.28102 20.37149 20.47799 20.59834 20.72958 20.86814 21.00997 21.15071 21.28584 21.41086 21.52144 21.61352 21.68351 21.72836 21.74567 21.73381 21.69193 21.62004 21.51902 21.39064 21.23754 21.06319 20.8719 20.66876 20.45959 20.24956 20.02995 19.80024 19.56332 19.32163 19.07713 18.83131 18.58524 18.33961 18.09486 17.85126 17.60902 17.36841 17.12983 16.8939 16.66151 16.43388 16.21254 15.99934 15.7964 15.60601 15.43058 15.27243 15.13374 15.01628 14.92134 14.84953 14.80065 14.77403 14.77077 14.79081 14.83295 14.89523 14.9751 15.06969 15.17598 15.29093 15.41167 15.53561 15.66046 15.7844 15.906 16.02429 16.13873 16.24915 16.35568 16.45872 16.55881 16.65657 16.75266 16.84763 16.94196 17.03597 17.1298 17.22338 17.31647 17.40924 17.50164 17.59126 17.67596 17.75399 17.82407 17.88534 17.93742 17.98043 18.01493 18.04196 18.06298 18.07985 18.09478 18.11022 18.12884 18.15341 18.18669 18.23132 18.28968 18.36379 18.45513 18.5645 18.69193 18.83652 18.99643 19.16873 19.34947 19.53685 19.73236 19.93427 20.14036 20.34807 20.55465 20.7573 20.95333 21.14021 21.3157 21.47791 21.62532 21.75686 21.87188 21.97012 22.05173 22.11718 22.1672 22.20272 22.22481 22.2346 22.23324 22.22182 22.20138 22.17283 22.13696 22.09443 22.04572 21.98952 21.92636 21.85833 21.7873 21.7148 21.64206 21.56998 21.49913 21.42978 21.36191 21.29524 21.22929 21.16341 21.09685 21.02879 20.95844 20.88507 20.80806 20.72697 20.64157 20.55191 20.45829 20.36133 20.26197 20.16149 20.06149 19.9639 19.87063 19.77872 19.6886 19.60253 19.5224 19.44981 19.38601 19.33191 19.28813 19.25494 19.23232 19.22001 19.21748 19.224 19.2387 19.26056 19.2885 19.32143 19.35824 19.3979 19.43945 19.48206 19.52503 19.56783 19.61007 19.65154 19.69218 19.73209 19.77136 19.81 19.84937 19.8907 19.93486 19.98238 20.03344 20.08789 20.14528 20.20487 20.26563 20.32634 20.38555 20.44169 20.4931 20.53809 20.57502 20.60238 20.61882 20.62329 20.6151 20.59395 20.56006 20.51422 20.45778 20.39278 20.32187 20.24839 20.17488 20.09848 20.01869 19.9356 19.84948 19.76073 19.66981 19.57722 19.48347 19.38908 19.29453 19.2003 19.10684 19.01461 18.9241 18.83581 18.75027 18.66809 18.58988 18.51634 18.44815 18.38602 18.3306 18.28252 18.24225 18.21014 18.18632 18.17065 18.16264 18.16182 18.16801 18.18096 18.2003 18.22561 18.25639 18.29211 18.33217 18.376 18.42297 18.47249 18.52395 18.57677 18.63041
15.75145 15.99546 16.22762 16.44871 16.65957 16.86097 17.05343 17.23715 17.41196 17.57725 17.73209 17.87523 18.00529 18.12085 18.22067 18.30393 18.37036 18.42024 18.45154 18.46162 18.44913 18.41391 18.35698 18.2804 18.18722 18.08133 17.96733 17.85042 17.7362 17.63053 17.53931 17.46827 17.42277 17.40751 17.4263 17.48186 17.57555 17.70722 17.87512 18.07583 18.3043 18.55389 18.81656 19.08303 19.34297 19.60655 19.88238 20.158 20.42231 20.66577 20.88057 21.06077 21.20233 21.30307 21.36264 21.38235 21.36496 21.31448 21.23591 21.13496 21.01782 20.89086 20.76044 20.63263 20.51303 20.40655 20.3172 20.24796 20.20061 20.17558 20.17184 20.18684 20.21645 20.25917 20.31721 20.39152 20.48197 20.58739 20.70577 20.83432 20.96963 21.10782 21.24471 21.37595 21.49714 21.60408 21.69278 21.7597 21.80183 21.81678 21.80289 21.75931 21.68601 21.58384 21.45454 21.30071 21.1258 20.9341 20.73068 20.52135 20.31133 20.09221 19.86343 19.62778 19.38758 19.14465 18.90036 18.65567 18.41118 18.16724 17.92408 17.68188 17.44093 17.20168 16.96488 16.73156 16.50312 16.28134 16.06832 15.86648 15.67844 15.50688 15.35444 15.22352 15.11604 15.03331 14.97581 14.94304 14.9339 14.94931 14.98899 15.05145 15.13442 15.23506 15.35019 15.47646 15.61052 15.74915 15.88941 16.02868 16.16479 16.29602 16.42115 16.53945 16.65067 16.75498 16.8529 16.94517 17.03273 17.11655 17.19756 17.27662 17.35443 17.4315 17.50815 17.58449 17.66083 17.73717 17.81177 17.88303 17.94964 18.01054 18.06497 18.1125 18.15306 18.18696 18.2149 18.23798 18.25771 18.27592 18.29477 18.31661 18.34396 18.37939 18.42537 18.48417 18.55775 18.64754 18.7544 18.8784 19.01875 19.17369 19.34048 19.51531 19.69644 19.88537 20.08046 20.27957 20.48022 20.67977 20.87552 21.06486 21.24535 21.41483 21.57147 21.71382 21.84085 21.95195 22.04689 22.12582 22.1892 22.23774 22.27235 22.29406 22.30397 22.30315 22.29268 22.27349 22.24644 22.21225 22.17146 22.1245 22.06993 22.00825 21.94152 21.87154 21.79981 21.72753 21.65558 21.58452 21.51461 21.44586 21.37801 21.3106 21.24303 21.17461 21.1046 21.0323 20.95708 20.87848 20.79617 20.7101 20.62041 20.52755 20.43218 20.3353 20.23812 20.14218 20.04926 19.96109 19.87456 19.79007 19.70982 19.63566 19.5691 19.51131 19.46315 19.42514 19.39747 19.3801 19.37267 19.37466 19.38532 19.40379 19.42909 19.46018 19.49598 19.53544 19.57754 19.62136 19.66605 19.71094 19.75547 19.79927 19.8421 19.8839 19.92476 19.96476 20.00389 20.04362 20.08526 20.12974 20.17762 20.22909 20.28401 20.3419 20.40199 20.4632 20.52424 20.5836 20.63962 20.69057 20.73469 20.77026 20.79568 20.80957 20.81082 20.79871 20.77295 20.73379 20.68206 20.61924 20.54745 20.46952 20.38895 20.30831 20.22438 20.13688 20.04614 19.95264 19.85695 19.75964 19.66131 19.56251 19.46375 19.36547 19.26809 19.17196 19.07746 18.98495 18.89484 18.80762 18.7238 18.64399 18.56887 18.49916 18.4356 18.37894 18.3299 18.28906 18.2569 18.23366 18.2193 18.21338 18.21545 18.22533 18.24267 18.26704 18.29787 18.33457 18.37646 18.42282 18.47292 18.52605 18.58146 18.63845 18.69633 18.75444
15.58537 15.82997 16.06504 16.29106 16.50856 16.71791 16.91925 17.11242 17.29683 17.47157 17.63533 17.7866 17.92373 18.0451 18.14935 18.2356 18.30362 18.35387 18.38441 18.39261 18.37715 18.33796 18.27617 18.19399 18.09463 17.98213 17.86127 17.7374 17.61631 17.504 17.40654 17.32982 17.27934 17.25994 17.27556 17.32898 17.42159 17.55324 17.72211 17.92469 18.15582 18.40879 18.6755 18.94661 19.21181 19.48126 19.76343 20.04573 20.31693 20.56742 20.78936 20.97683 21.1258 21.23416 21.30165 21.32962 21.32093 21.27962 21.21068 21.11982 21.01315 20.89695 20.77745 20.66058 20.55177 20.45574 20.37635 20.31639 20.27748 20.25993 20.26261 20.28293 20.31676 20.36257 20.42246 20.49738 20.58725 20.69102 20.80684 20.93207 21.0635 21.19744 21.32986 21.45658 21.57336 21.67606 21.76082 21.82414 21.86306 21.8752 21.85893 21.81337 21.7385 21.63514 21.505 21.35065 21.17552 20.98386 20.7807 20.57182 20.36245 20.14443 19.91723 19.6835 19.44544 19.20475 18.96268 18.72005 18.47735 18.23486 17.99274 17.75116 17.51043 17.27106 17.03387 16.80006 16.5712 16.34928 16.13667 15.93605 15.75035 15.58256 15.43562 15.31217 15.21431 15.1434 15.09981 15.08277 15.09076 15.12452 15.1835 15.26591 15.36915 15.49009 15.62522 15.7709 15.92344 16.07932 16.23525 16.3883 16.53596 16.67621 16.8076 16.92921 17.04073 17.14236 17.23476 17.3189 17.39602 17.46741 17.5344 17.59819 17.65987 17.72033 17.78025 17.84006 17.90022 17.9608 18.0207 18.07887 18.13438 18.18641 18.23429 18.27754 18.31589 18.34941 18.37846 18.40381 18.42659 18.44828 18.47072 18.49597 18.5263 18.56404 18.6115 18.67085 18.74395 18.83223 18.93654 19.05703 19.193 19.34282 19.50388 19.67255 19.84716 20.02922 20.21715 20.40892 20.60216 20.79431 20.98278 21.16506 21.3388 21.50193 21.65268 21.78968 21.91194 22.01888 22.11029 22.18635 22.2475 22.29446 22.32811 22.34944 22.35951 22.35937 22.35 22.3323 22.30704 22.27485 22.2362 22.1914 22.13893 22.07921 22.01428 21.94587 21.87544 21.80416 21.73287 21.66213 21.59222 21.52313 21.45462 21.38628 21.31753 21.24772 21.17618 21.1023 21.02555 20.94559 20.86224 20.77557 20.68589 20.59374 20.49988 20.40532 20.31125 20.21912 20.13058 20.0472 19.96571 19.88644 19.81154 19.74279 19.68165 19.62922 19.58629 19.55331 19.53045 19.51757 19.51434 19.52017 19.53437 19.55607 19.58434 19.61819 19.65658 19.6985 19.74296 19.78903 19.83591 19.88288 19.92939 19.97504 20.01959 20.06293 20.10512 20.14624 20.18625 20.22668 20.26893 20.31397 20.36242 20.4145 20.47007 20.52866 20.58944 20.65133 20.71295 20.77275 20.82899 20.87987 20.92354 20.95819 20.98217 20.99402 20.99257 20.97706 20.9472 20.90326 20.84612 20.77733 20.69917 20.61459 20.52726 20.43982 20.3487 20.25385 20.15584 20.05536 19.95311 19.84984 19.74621 19.64282 19.54018 19.43869 19.33869 19.24045 19.14422 19.05027 18.9589 18.87051 18.78557 18.70463 18.62835 18.55749 18.49283 18.43519 18.38537 18.3441 18.31196 18.2893 18.2762 18.27227 18.27712 18.2905 18.31202 18.34114 18.3772 18.41946 18.46711 18.51933 18.57527 18.63407 18.69489 18.75691 18.81934 18.88143
15.41325 15.65839 15.89639 16.12745 16.35176 16.56933 16.77993 16.98298 17.17755 17.36234 17.53574 17.69592 17.84098 17.96911 18.0788 18.16908 18.23977 18.29147 18.32237 18.32982 18.31253 18.27052 18.20502 18.11839 18.01397 17.89594 17.76923 17.63934 17.51219 17.39394 17.29079 17.2088 17.1536 17.1302 17.14265 17.19385 17.28524 17.41663 17.58615 17.79019 18.0235 18.27928 18.54936 18.8244 19.09409 19.36857 19.65612 19.94406 20.22109 20.47757 20.70565 20.89943 21.05493 21.17013 21.24482 21.28046 21.27997 21.24742 21.18782 21.10683 21.01048 20.90496 20.79634 20.69038 20.59233 20.50673 20.43722 20.38642 20.35579 20.34548 20.35429 20.37955 20.41718 20.46558 20.52677 20.60168 20.69032 20.79177 20.90432 21.02553 21.15237 21.28135 21.40861 21.53012 21.64178 21.7396 21.81978 21.87893 21.91409 21.92296 21.90391 21.85608 21.77944 21.67483 21.54391 21.38924 21.2142 21.02301 20.82063 20.61278 20.40464 20.18833 19.9633 19.73211 19.49682 19.25901 19.01979 18.77986 18.53958 18.29915 18.05867 17.81829 17.57833 17.33937 17.10232 16.86848 16.63961 16.41789 16.20592 16.00664 15.82325 15.65907 15.51732 15.4009 15.31211 15.2524 15.22206 15.22006 15.24449 15.29589 15.37341 15.47494 15.59757 15.73786 15.89201 16.05606 16.22605 16.39815 16.56876 16.73465 16.89298 17.04147 17.17839 17.30268 17.41394 17.51243 17.59896 17.67475 17.74132 17.80032 17.85341 17.90219 17.94808 17.99234 18.03597 18.07974 18.12426 18.16965 18.21541 18.26103 18.30595 18.34958 18.39134 18.43066 18.46714 18.50055 18.53096 18.55878 18.58481 18.61019 18.6364 18.66524 18.69871 18.73891 18.788 18.84801 18.9207 19.00749 19.10923 19.22613 19.35759 19.50212 19.65723 19.81948 19.98729 20.16214 20.34257 20.52663 20.71205 20.89639 21.07718 21.252 21.4186 21.575 21.71951 21.85081 21.96798 22.07046 22.15809 22.23104 22.28978 22.335 22.36757 22.38846 22.39869 22.39927 22.39112 22.37508 22.35185 22.32196 22.2858 22.24357 22.19365 22.13642 22.07383 22.00757 21.93904 21.86937 21.79938 21.72963 21.66039 21.59166 21.52321 21.45464 21.3854 21.31486 21.24241 21.16749 21.08968 21.00873 20.9246 20.83751 20.7479 20.65642 20.56394 20.47146 20.38019 20.29147 20.20685 20.12775 20.0507 19.97598 19.90568 19.84152 19.78492 19.73694 19.69832 19.66947 19.65051 19.64129 19.64144 19.6504 19.66746 19.69183 19.7226 19.75884 19.79957 19.8438 19.89056 19.93895 19.98814 20.03741 20.0862 20.13406 20.18072 20.22603 20.27003 20.31273 20.35407 20.39564 20.43889 20.48487 20.53422 20.58721 20.64372 20.70329 20.76508 20.82796 20.89053 20.95115 21.00805 21.05931 21.10301 21.13728 21.16035 21.17071 21.16712 21.14878 21.11537 21.06717 21.00511 20.93084 20.84674 20.75592 20.66224 20.56835 20.47045 20.36866 20.2638 20.15676 20.04842 19.93964 19.8312 19.72373 19.61775 19.51361 19.41159 19.31185 19.21453 19.11977 19.02779 18.93887 18.85341 18.77192 18.69504 18.62352 18.55819 18.49994 18.44964 18.40813 18.37612 18.35408 18.34218 18.34014 18.34758 18.36423 18.38962 18.42312 18.46397 18.51129 18.56416 18.62164 18.68275 18.74655 18.8121 18.87847 18.94479 19.01023
15.23441 15.48007 15.72107 15.95733 16.18868 16.41479 16.63503 16.84845 17.05374 17.24924 17.43302 17.60295 17.75688 17.89279 18.00902 18.10452 18.17911 18.23353 18.26609 18.27414 18.2564 18.21296 18.14519 18.05553 17.94744 17.82526 17.69402 17.55934 17.42726 17.30405 17.19607 17.10947 17.05007 17.023 17.03248 17.08151 17.1716 17.30256 17.47243 17.67752 17.91245 18.17035 18.44303 18.72112 18.99438 19.27283 19.56462 19.85698 20.13861 20.39988 20.63298 20.83202 20.99311 21.1143 21.19547 21.23816 21.24534 21.22115 21.17058 21.09923 21.01305 20.91807 20.82022 20.72506 20.63765 20.56231 20.50249 20.46062 20.43796 20.43455 20.44906 20.47879 20.51967 20.57007 20.6319 20.70613 20.79283 20.89123 20.99978 21.11622 21.23773 21.36098 21.48233 21.59791 21.70376 21.796 21.87097 21.92533 21.9562 21.96131 21.93907 21.88866 21.81005 21.70408 21.57242 21.41759 21.24292 21.05257 20.85143 20.64513 20.43877 20.2247 20.00239 19.77428 19.54234 19.30801 19.07226 18.83564 18.59842 18.36066 18.12244 17.88389 17.64534 17.40742 17.17111 16.93785 16.70951 16.48845 16.27747 16.07975 15.89876 15.73808 15.60121 15.49133 15.41098 15.36168 15.34371 15.35581 15.39568 15.46363 15.55852 15.6779 15.81856 15.97676 16.14844 16.32937 16.51532 16.70219 16.88612 17.06357 17.23143 17.38713 17.52871 17.65493 17.76533 17.86021 17.94056 18.00785 18.06392 18.11073 18.15029 18.18452 18.21521 18.24392 18.27199 18.30049 18.33012 18.3611 18.39352 18.42733 18.46234 18.49819 18.53435 18.57022 18.6052 18.63882 18.67085 18.70138 18.73085 18.76008 18.79025 18.82286 18.85963 18.90247 18.95333 19.0141 19.08648 19.17182 19.27099 19.38424 19.51108 19.65013 19.79909 19.95465 20.11536 20.28269 20.45524 20.63119 20.80838 20.98449 21.15716 21.32409 21.48313 21.63239 21.77026 21.8955 22.00723 22.10493 22.18847 22.25803 22.3141 22.35737 22.3887 22.40903 22.41934 22.42062 22.41373 22.39946 22.37842 22.35109 22.31773 22.27845 22.23154 22.1773 22.11763 22.05415 21.98819 21.92083 21.85289 21.78491 21.71717 21.64967 21.58218 21.51429 21.44546 21.37507 21.30253 21.22734 21.14912 21.06773 20.98324 20.89599 20.80657 20.71576 20.62449 20.53382 20.44492 20.35906 20.2777 20.20214 20.12871 20.0576 19.99085 19.93019 19.87699 19.83231 19.79685 19.77102 19.75491 19.74837 19.75102 19.76229 19.78153 19.80797 19.84077 19.87905 19.92187 19.96827 20.01731 20.06807 20.11972 20.17153 20.22289 20.27332 20.3225 20.37025 20.41654 20.46134 20.50453 20.54774 20.59247 20.63983 20.6905 20.74482 20.80269 20.86364 20.92686 20.99118 21.05516 21.11711 21.17516 21.22734 21.27165 21.30611 21.32889 21.33837 21.33326 21.31269 21.27633 21.22445 21.15803 21.0788 20.98926 20.89267 20.79307 20.69318 20.58894 20.48068 20.36945 20.25633 20.1424 20.02864 19.91591 19.80492 19.69617 19.59 19.48659 19.38602 19.28829 19.19344 19.10155 19.01281 18.92753 18.84617 18.76934 18.69777 18.63231 18.57389 18.52349 18.48202 18.4503 18.42893 18.4182 18.41791 18.42772 18.44733 18.4762 18.51361 18.55866 18.61038 18.66774 18.72969 18.79516 18.86312 18.93253 19.00241 19.0718 19.1398
15.0483 15.29453 15.53863 15.78025 16.01891 16.25388 16.48418 16.70846 16.92504 17.1319 17.32679 17.5073 17.67104 17.81577 17.93971 18.0417 18.12153 18.18009 18.2158 18.22596 18.20935 18.16612 18.09773 18.00673 17.89668 17.77201 17.63786 17.49994 17.36437 17.23752 17.12584 17.03562 16.97277 16.94259 16.94946 16.99652 17.08534 17.21573 17.38565 17.59127 17.82715 18.08634 18.36063 18.6407 18.91636 19.19752 19.49214 19.78748 20.07228 20.33695 20.57376 20.77691 20.94254 21.06881 21.15566 21.20474 21.21908 21.20282 21.16094 21.09896 21.02271 20.93808 20.85079 20.76622 20.6892 20.62384 20.57339 20.54006 20.52495 20.52795 20.54762 20.58123 20.62474 20.67646 20.73824 20.81106 20.8951 20.98971 21.09352 21.20446 21.31989 21.4367 21.55141 21.66033 21.75967 21.84568 21.91481 21.96379 21.98985 21.99074 21.96492 21.9116 21.83081 21.72338 21.59098 21.4361 21.26202 21.07281 20.87329 20.66897 20.46485 20.25348 20.03436 19.80984 19.58177 19.35148 19.11978 18.88709 18.65355 18.41914 18.18387 17.94787 17.71149 17.47539 17.24063 17.00873 16.78167 16.56196 16.35255 16.15684 15.9785 15.82136 15.6892 15.58544 15.51285 15.47311 15.4665 15.49152 15.54556 15.62864 15.73931 15.87481 16.03167 16.20586 16.3931 16.58893 16.78889 16.98866 17.18414 17.37153 17.54748 17.70915 17.85434 17.98163 18.09048 18.18128 18.25518 18.31395 18.35969 18.3947 18.42129 18.44169 18.458 18.47208 18.48554 18.49974 18.5155 18.53309 18.55313 18.57604 18.60197 18.63076 18.66196 18.69489 18.72879 18.76296 18.79688 18.83032 18.86342 18.89668 18.93097 18.9675 19.00775 19.05339 19.10618 19.16786 19.24003 19.32399 19.42061 19.53019 19.65231 19.78574 19.92833 20.07697 20.23028 20.38974 20.55405 20.72149 20.89003 21.05747 21.22157 21.38015 21.53119 21.67289 21.80372 21.9225 22.02841 22.12098 22.20009 22.26596 22.31908 22.36014 22.39 22.40958 22.41985 22.42173 22.41606 22.40358 22.38484 22.36022 22.32992 22.29392 22.25044 22.19971 22.14356 22.08351 22.02084 21.95658 21.89153 21.82625 21.76099 21.69576 21.63032 21.56422 21.49691 21.42778 21.35622 21.28173 21.20399 21.1229 21.03862 20.95162 20.86261 20.77249 20.68229 20.5931 20.50604 20.42236 20.34342 20.27045 20.19956 20.13085 20.06636 20.00782 19.95662 19.91383 19.88018 19.85608 19.84163 19.83667 19.84083 19.85357 19.87424 19.90213 19.93647 19.97643 20.02109 20.06954 20.12082 20.17402 20.22827 20.28282 20.33702 20.39036 20.44246 20.49308 20.54213 20.58953 20.63511 20.68051 20.72727 20.77654 20.82906 20.88521 20.94495 21.00782 21.07301 21.13933 21.20528 21.26914 21.32896 21.3827 21.42825 21.46356 21.4867 21.49598 21.49001 21.46788 21.42921 21.37428 21.30411 21.2205 21.12608 21.02426 20.91926 20.81388 20.70382 20.58962 20.47255 20.3539 20.23492 20.11673 20.00029 19.88636 19.77546 19.6679 19.56377 19.46305 19.36564 19.27143 19.1804 19.0926 19.00828 18.92782 18.85176 18.78082 18.71586 18.65784 18.60777 18.56667 18.53546 18.51485 18.50524 18.50654 18.51846 18.54066 18.57252 18.61323 18.66177 18.71709 18.77805 18.84351 18.91234 18.98344 19.0557 19.12808 19.19958 19.26922
14.85468 15.10151 15.34884 15.59601 15.84222 16.08639 16.32713 16.56272 16.79111 17.00992 17.21661 17.40848 17.58291 17.73749 17.87028 17.98004 18.06653 18.13072 18.17116 18.18511 18.17138 18.13019 18.06307 17.97266 17.86259 17.73738 17.60222 17.46289 17.32558 17.19672 17.08281 16.99022 16.92496 16.89247 16.89728 16.94268 17.03033 17.16002 17.32962 17.53517 17.77115 18.03058 18.30527 18.58598 18.86263 19.14497 19.44076 19.73738 20.02367 20.29016 20.52923 20.73515 20.90417 21.03451 21.12621 21.18098 21.20189 21.19311 21.15954 21.10661 21.04 20.96542 20.88839 20.81407 20.74707 20.69127 20.6497 20.62439 20.61626 20.62505 20.64924 20.68606 20.73149 20.78382 20.84482 20.91553 20.99619 21.08632 21.1847 21.28945 21.39812 21.5078 21.61521 21.71683 21.80902 21.8882 21.9509 21.994 22.01475 22.011 21.98124 21.92475 21.84156 21.73256 21.5994 21.44453 21.27118 21.08335 20.88573 20.68372 20.48219 20.2739 20.05836 19.83784 19.61411 19.38836 19.16129 18.93315 18.70395 18.4736 18.24208 18.0095 17.77622 17.54294 17.31076 17.08125 16.8565 16.6391 16.43214 16.23917 16.06402 15.91073 15.78329 15.68537 15.61996 15.58893 15.59256 15.6292 15.69587 15.79232 15.9168 16.06629 16.23704 16.42486 16.62523 16.83352 17.04511 17.25548 17.46034 17.6557 17.83799 18.00414 18.15171 18.27909 18.38568 18.47193 18.53921 18.58954 18.62531 18.6491 18.6635 18.67101 18.67398 18.67455 18.67459 18.67569 18.67877 18.68417 18.69299 18.70606 18.72385 18.74639 18.7733 18.80384 18.83709 18.87213 18.90817 18.94471 18.9816 19.01903 19.05759 19.0982 19.14209 19.19069 19.24558 19.30833 19.38043 19.46311 19.55723 19.66314 19.7805 19.90819 20.04423 20.1857 20.33135 20.48262 20.63833 20.79687 20.95633 21.11466 21.26975 21.41955 21.56215 21.69585 21.81923 21.93116 22.03087 22.11793 22.19227 22.25412 22.30397 22.34254 22.37066 22.38926 22.39928 22.4016 22.39705 22.38629 22.36984 22.34803 22.32095 22.2885 22.24882 22.20209 22.15004 22.09409 22.03546 21.97514 21.91394 21.85238 21.79073 21.72898 21.66684 21.60385 21.53941 21.47285 21.40355 21.33098 21.25481 21.17497 21.09169 21.00549 20.91721 20.82788 20.73862 20.65053 20.56472 20.48239 20.40486 20.33333 20.26367 20.19591 20.13213 20.07411 20.02328 19.98078 19.94738 19.92355 19.90942 19.90485 19.90947 19.92276 19.9441 19.97282 20.00821 20.04949 20.09576 20.14612 20.1996 20.25526 20.31222 20.36967 20.42692 20.48343 20.53876 20.59262 20.64488 20.69537 20.74387 20.79202 20.84138 20.89313 20.94808 21.00667 21.06889 21.13432 21.20211 21.27108 21.33969 21.40614 21.46842 21.52441 21.57192 21.60879 21.63302 21.64281 21.63671 21.61373 21.57345 21.51615 21.44289 21.35556 21.25689 21.15045 21.04063 20.93034 20.81504 20.6955 20.57319 20.44961 20.32617 20.20415 20.0846 19.96834 19.85591 19.7476 19.64343 19.54327 19.4469 19.35409 19.26468 19.17864 19.09608 19.01731 18.94282 18.87327 18.80951 18.7525 18.7033 18.66298 18.63253 18.61279 18.60428 18.607 18.62071 18.64505 18.67933 18.7226 18.7738 18.83174 18.89525 18.96312 19.03417 19.10723 19.18119 19.25494 19.32745 19.39771
14.65363 14.90111 15.15177 15.40467 15.65867 15.91231 16.16382 16.4111 16.65172 16.88299 17.10203 17.30592 17.49182 17.65716 17.79987 17.91863 18.01316 18.08452 18.13133 18.15083 18.14184 18.10467 18.04088 17.95317 17.84524 17.72164 17.58761 17.44897 17.31194 17.18297 17.06857 16.97517 16.90883 16.87506 16.87854 16.92271 17.00934 17.13818 17.30697 17.51168 17.74671 18.00511 18.27876 18.55853 18.83448 19.1162 19.41125 19.7072 19.99309 20.25961 20.49928 20.70651 20.87766 21.011 21.10663 21.16634 21.19322 21.1914 21.16571 21.12144 21.0641 20.99918 20.932 20.86748 20.80998 20.76317 20.72987 20.7119 20.71004 20.72389 20.75186 20.79114 20.83775 20.88996 20.94948 21.0174 21.09406 21.1791 21.27145 21.36942 21.47075 21.57273 21.67226 21.76601 21.85052 21.92233 21.97814 22.01489 22.02995 22.02121 21.98722 21.9273 21.84155 21.73087 21.59691 21.44208 21.26955 21.08323 20.88771 20.68825 20.48959 20.28465 20.07298 19.85681 19.63781 19.41707 19.19515 18.97218 18.74804 18.52257 18.2957 18.06757 17.83852 17.60928 17.38095 17.15516 16.93403 16.72022 16.51691 16.32773 16.15666 16.00785 15.88546 15.79333 15.73468 15.71155 15.72429 15.7711 15.84866 15.95643 16.09241 16.25334 16.43533 16.63398 16.84466 17.0626 17.28304 17.50134 17.71307 17.91409 18.10068 18.26957 18.41813 18.54454 18.64812 18.72939 18.78997 18.83212 18.85848 18.87184 18.87503 18.87078 18.86167 18.85006 18.83804 18.8274 18.81918 18.81376 18.81264 18.81704 18.8277 18.84484 18.86815 18.89684 18.92984 18.96602 19.00438 19.04417 19.08495 19.12666 19.16959 19.21441 19.26209 19.31383 19.37098 19.43498 19.50716 19.5887 19.68042 19.78269 19.89526 20.01714 20.14648 20.28059 20.41833 20.56113 20.7079 20.85717 21.00717 21.15598 21.30164 21.44224 21.57598 21.70127 21.81679 21.92148 22.01463 22.09583 22.16505 22.22254 22.26882 22.30459 22.3307 22.34804 22.35755 22.3601 22.35646 22.34729 22.33305 22.31402 22.29023 22.26151 22.22592 22.1836 22.13619 22.08502 22.0312 21.97571 21.91935 21.86265 21.80585 21.74891 21.6915 21.63309 21.573 21.51053 21.44496 21.37573 21.30245 21.22503 21.1437 21.05903 20.97195 20.88359 20.79517 20.70781 20.62258 20.54065 20.46337 20.39196 20.32204 20.25359 20.18877 20.12946 20.07719 20.0332 19.99837 19.97323 19.95798 19.95252 19.9565 19.96941 19.99063 20.01957 20.05554 20.09778 20.14544 20.19756 20.25316 20.31127 20.37097 20.4314 20.49184 20.55168 20.61047 20.66786 20.72366 20.77764 20.82955 20.881 20.93353 20.98837 21.04639 21.10809 21.17348 21.24216 21.31329 21.38565 21.45765 21.52744 21.59294 21.65195 21.70217 21.74137 21.76744 21.77849 21.77301 21.74992 21.70878 21.64985 21.57422 21.48387 21.38164 21.27126 21.15729 21.04271 20.92284 20.7986 20.67171 20.54384 20.41659 20.29137 20.16933 20.05136 19.93804 19.82961 19.72605 19.62713 19.53251 19.44184 19.35483 19.27133 19.19135 19.11511 19.043 18.97563 18.91382 18.85851 18.81076 18.77168 18.74233 18.72363 18.71618 18.72012 18.73528 18.76125 18.79725 18.84225 18.8951 18.95459 19.01947 19.08851 19.1605 19.23425 19.30863 19.38251 19.45485 19.52463
14.44571 14.69387 14.94794 15.2067 15.46865 15.73196 15.99446 16.25368 16.50682 16.75086 16.98267 17.19907 17.39704 17.57386 17.72738 17.85623 17.96009 18.04008 18.09489 18.12173 18.11944 18.08834 18.03004 17.94727 17.84375 17.72406 17.59346 17.45778 17.32323 17.19625 17.08336 16.99095 16.92509 16.89132 16.89439 16.93786 17.02363 17.1514 17.31876 17.52164 17.75446 18.01034 18.28127 18.55829 18.83167 19.11075 19.40294 19.69608 19.97948 20.24405 20.48253 20.68949 20.86138 20.99656 21.09518 21.15904 21.19125 21.19585 21.17756 21.1415 21.09296 21.03722 20.97936 20.92404 20.8754 20.83688 20.81107 20.79964 20.80322 20.82129 20.85221 20.89315 20.94018 20.99158 21.04901 21.11357 21.1857 21.26515 21.351 21.44174 21.53529 21.62913 21.72035 21.80581 21.88221 21.94626 21.99479 22.02486 22.03392 22.01993 21.98149 21.91798 21.82956 21.71712 21.58232 21.42753 21.25587 21.07114 20.87783 20.68106 20.48544 20.28406 20.07649 19.86492 19.65096 19.43563 19.21937 19.0022 18.78387 18.56417 18.34302 18.12053 17.89706 17.67329 17.45035 17.22985 17.01394 16.80531 16.60716 16.42317 16.25739 16.11404 15.99736 15.91132 15.85925 15.84336 15.86412 15.91954 16.00603 16.12281 16.26769 16.43727 16.6275 16.83393 17.0518 17.27627 17.50251 17.72579 17.94159 18.1457 18.33428 18.50394 18.65193 18.77624 18.87606 18.95206 19.00604 19.04047 19.05816 19.06208 19.05523 19.04054 19.02076 18.99844 18.97587 18.95502 18.937 18.92222 18.91257 18.90954 18.91413 18.92673 18.94711 18.97444 19.00751 19.04504 19.08584 19.12893 19.17365 19.21967 19.26704 19.31615 19.36772 19.42273 19.48232 19.54773 19.62018 19.70074 19.79019 19.88891 19.99672 20.11273 20.23528 20.36188 20.49151 20.62558 20.76314 20.90283 21.04302 21.18196 21.31782 21.44883 21.57333 21.68985 21.79715 21.89426 21.98051 22.05554 22.11933 22.17216 22.21456 22.24724 22.27104 22.28685 22.29557 22.29807 22.2951 22.2873 22.2751 22.25874 22.23821 22.21328 22.18197 22.14439 22.10208 22.05629 22.00804 21.95828 21.90781 21.85716 21.80653 21.75582 21.70463 21.65236 21.59826 21.54149 21.48128 21.41695 21.34803 21.27437 21.19615 21.11393 21.02865 20.94155 20.85392 20.76688 20.68149 20.59894 20.52064 20.4479 20.37611 20.30521 20.23749 20.17497 20.11936 20.07202 20.03398 20.00588 19.98801 19.98034 19.98256 19.99415 20.01451 20.04306 20.07916 20.12206 20.17086 20.22458 20.2822 20.34269 20.40509 20.4685 20.53214 20.59539 20.65773 20.7188 20.77835 20.83613 20.89184 20.94707 21.00332 21.06185 21.12362 21.18912 21.25843 21.33112 21.40635 21.48286 21.55904 21.63295 21.70246 21.76526 21.81898 21.86128 21.88996 21.90306 21.89895 21.87653 21.83528 21.77548 21.69825 21.60565 21.50061 21.38702 21.26961 21.15146 21.02771 20.8995 20.76871 20.63725 20.50686 20.37908 20.25519 20.13614 20.02252 19.91458 19.81225 19.7152 19.62299 19.53514 19.45127 19.37107 19.29447 19.22155 19.15263 19.08825 19.02915 18.97625 18.93058 18.89327 18.8654 18.84794 18.84157 18.84654 18.86275 18.88976 18.92669 18.97246 19.02588 19.08571 19.15069 19.21958 19.29116 19.36426 19.43772 19.51045 19.5814 19.64954
14.23207 14.48088 14.73838 15.00305 15.273 15.54603 15.81958 16.0908 16.35655 16.6135 16.85825 17.08741 17.2978 17.48661 17.65161 17.7914 17.90567 17.99561 18.05997 18.0959 18.10222 18.07926 18.02862 17.95302 17.85621 17.74277 17.61794 17.48755 17.35777 17.23501 17.12573 17.03626 16.97263 16.94034 16.9441 16.98752 17.07256 17.19887 17.36401 17.56391 17.79308 18.04478 18.31117 18.58348 18.85223 19.12651 19.41359 19.70166 19.98035 20.24091 20.4763 20.68129 20.85248 20.9883 21.08892 21.15614 21.193 21.20345 21.19202 21.16363 21.12335 21.07621 21.02702 20.98022 20.93968 20.90862 20.88944 20.88364 20.89171 20.91308 20.94606 20.98783 21.03457 21.08454 21.13934 21.20011 21.26732 21.34084 21.41989 21.50311 21.58861 21.67403 21.75668 21.83357 21.90161 21.95765 21.99865 22.02182 22.02469 22.0053 21.96231 21.89515 21.80401 21.6898 21.55415 21.39941 21.22861 21.0455 20.85445 20.66045 20.46799 20.27029 20.06699 19.86023 19.65157 19.44198 19.23185 19.02109 18.80937 18.59645 18.38221 18.16673 17.95033 17.73367 17.51785 17.30444 17.09559 16.89395 16.70274 16.52564 16.36667 16.23009 16.12015 16.04082 15.99548 15.98639 16.0141 16.07649 16.16981 16.29314 16.44415 16.6194 16.81476 17.02573 17.24753 17.47528 17.70411 17.92927 18.14621 18.35067 18.53877 18.70708 18.85278 18.97379 19.06922 19.1398 19.1875 19.21486 19.22482 19.22046 19.2049 19.1812 19.15229 19.12086 19.08935 19.05989 19.03363 19.01105 18.9943 18.98512 18.98471 18.99361 19.01166 19.038 19.07135 19.11033 19.15358 19.19995 19.24855 19.29885 19.35063 19.40404 19.45957 19.51794 19.58009 19.64709 19.71998 19.79972 19.88705 19.98234 20.08545 20.19562 20.31134 20.43032 20.5517 20.67688 20.80502 20.93488 21.06501 21.19379 21.31956 21.4407 21.55567 21.66313 21.76192 21.85116 21.93023 21.99883 22.05695 22.10487 22.14315 22.17248 22.1937 22.20769 22.21534 22.21749 22.2149 22.20819 22.19778 22.1839 22.16651 22.14533 22.11838 22.08571 22.04885 22.00895 21.96697 21.92383 21.88032 21.83691 21.79376 21.7507 21.70724 21.66269 21.61619 21.5668 21.51361 21.45581 21.39283 21.32438 21.25056 21.17184 21.08915 21.0037 20.91686 20.82973 20.74341 20.65917 20.57855 20.50301 20.4277 20.35256 20.28008 20.21245 20.15158 20.09905 20.05603 20.02333 20.00136 19.99017 19.98951 19.99887 20.01766 20.0453 20.08114 20.12438 20.1741 20.22923 20.28872 20.35146 20.41644 20.48272 20.54948 20.61606 20.68192 20.74668 20.81007 20.8718 20.93158 20.99095 21.05141 21.11424 21.1804 21.25042 21.32436 21.40181 21.4819 21.56333 21.64444 21.72324 21.79752 21.86487 21.92285 21.96901 22.00105 22.01693 22.01496 21.99395 21.95337 21.89348 21.81544 21.72137 21.61433 21.49831 21.37823 21.25724 21.13038 20.99893 20.865 20.73065 20.59781 20.46814 20.34304 20.2235 20.11016 20.00327 19.90272 19.80811 19.71889 19.63449 19.55439 19.47819 19.40568 19.33684 19.27188 19.21124 19.15559 19.1058 19.06286 19.02786 19.00189 18.98593 18.98071 18.98653 19.00336 19.03071 19.06769 19.11319 19.16602 19.22494 19.28871 19.3561 19.42591 19.49699 19.56822 19.63852 19.70686 19.77225
14.01453 14.26389 14.52473 14.79518 15.07302 15.35562 15.64007 15.92311 16.2013 16.47101 16.7286 16.9705 17.19341 17.39442 17.57129 17.7226 17.8481 17.94908 18.02436 18.071 18.08774 18.07484 18.03389 17.9676 17.87969 17.77473 17.65795 17.53511 17.41235 17.29599 17.19241 17.10785 17.04823 17.01894 17.02459 17.06866 17.15304 17.27738 17.43937 17.63505 17.85907 18.10488 18.36484 18.63046 18.89248 19.15977 19.43945 19.72016 19.99193 20.24638 20.47675 20.67806 20.84707 20.98229 21.08392 21.15369 21.19452 21.21019 21.20501 21.18369 21.15104 21.11182 21.07059 21.03151 20.99822 20.97371 20.96021 20.95906 20.97064 20.99434 21.02846 21.07027 21.11605 21.16407 21.21586 21.27252 21.3346 21.40202 21.47414 21.54973 21.62708 21.70402 21.77802 21.84628 21.90588 21.95383 21.98725 22.00344 22.00007 21.97527 21.92774 21.85698 21.76317 21.64723 21.51076 21.35607 21.18615 21.00466 20.81588 20.62469 20.43545 20.24155 20.04265 19.84089 19.63778 19.43426 19.23068 19.02695 18.8227 18.61764 18.41159 18.20457 17.99685 17.78904 17.58218 17.3778 17.17798 16.98535 16.80305 16.6347 16.48429 16.35603 16.25408 16.18238 16.14421 16.14176 16.17544 16.24316 16.34121 16.46861 16.62302 16.80097 16.99835 17.21067 17.43315 17.66095 17.88919 18.11316 18.32831 18.53039 18.71554 18.88035 19.02201 19.13851 19.22903 19.29428 19.33616 19.35727 19.36056 19.34917 19.32632 19.29516 19.25872 19.21982 19.18102 19.14456 19.11167 19.08282 19.06039 19.04632 19.04195 19.04793 19.06413 19.08974 19.12348 19.16387 19.20947 19.25897 19.31131 19.36572 19.42178 19.47942 19.53886 19.60061 19.6654 19.73409 19.80756 19.88666 19.97204 20.06404 20.16257 20.26695 20.37584 20.48718 20.60027 20.71648 20.83509 20.955 21.07492 21.19339 21.3089 21.41998 21.52524 21.62344 21.71354 21.79473 21.86645 21.92844 21.98071 22.02357 22.05755 22.08334 22.10175 22.11367 22.11996 22.12148 22.11897 22.11305 22.10415 22.09248 22.07803 22.06047 22.03783 22.01016 21.97894 21.94532 21.91023 21.87453 21.83895 21.80389 21.76944 21.73533 21.70101 21.66567 21.62831 21.58788 21.5433 21.49364 21.43814 21.37637 21.30827 21.2342 21.15496 21.07168 20.98566 20.89807 20.81009 20.72315 20.63898 20.55926 20.47888 20.39784 20.31883 20.2443 20.17642 20.11696 20.06733 20.0285 20.00104 19.9851 19.98051 19.9868 20.00339 20.02965 20.06487 20.10818 20.15857 20.21491 20.27605 20.34084 20.40819 20.47713 20.54681 20.61654 20.68577 20.7541 20.82125 20.88695 20.9509 21.01467 21.07974 21.14737 21.21852 21.29368 21.37292 21.4558 21.54143 21.62846 21.71518 21.79956 21.87928 21.95188 22.0148 22.0655 22.1016 22.12096 22.12182 22.10295 22.06378 22.00458 21.92653 21.83181 21.72357 21.60594 21.48397 21.36094 21.23174 21.09782 20.9615 20.825 20.6904 20.55951 20.4338 20.31435 20.20183 20.09649 19.99818 19.90647 19.82073 19.74029 19.66452 19.59291 19.52511 19.46099 19.40066 19.34444 19.29292 19.24687 19.20725 19.17508 19.15143 19.13725 19.13326 19.13978 19.15675 19.18373 19.21985 19.26403 19.31511 19.37189 19.43316 19.49774 19.56448 19.63225 19.69999 19.76666 19.83126 19.89285
13.79489 14.04453 14.30843 14.58439 14.8698 15.16167 15.45669 15.75125 16.04159 16.3238 16.59403 16.84855 17.08395 17.29728 17.48627 17.64958 17.78701 17.89997 17.98739 18.04619 18.07498 18.07395 18.04461 17.98964 17.91274 17.81841 17.71185 17.59876 17.48517 17.37732 17.28146 17.20369 17.14976 17.12489 17.1335 17.17886 17.26266 17.38465 17.54267 17.73298 17.95044 18.18872 18.44048 18.69747 18.95078 19.20896 19.479 19.75008 20.01272 20.25894 20.48235 20.6782 20.84347 20.97676 21.07826 21.14962 21.19357 21.21366 21.214 21.19901 21.17323 21.14115 21.10704 21.07479 21.04782 21.0289 21.02006 21.02251 21.03658 21.0616 21.09592 21.13692 21.18106 21.22662 21.27501 21.32732 21.38409 21.44532 21.51048 21.57848 21.64774 21.71628 21.78173 21.84149 21.89277 21.93277 21.95872 21.96809 21.95863 21.92855 21.87667 21.80246 21.70612 21.58854 21.45131 21.29669 21.12764 20.94774 20.76121 20.57282 20.38685 20.19684 20.00249 19.80591 19.60861 19.4115 19.21495 19.01886 18.8229 18.62672 18.43008 18.23291 18.03542 17.83814 17.64204 17.44859 17.25977 17.07811 16.90668 16.74899 16.60892 16.49055 16.39791 16.33479 16.30428 16.30834 16.34719 16.41883 16.5197 16.64887 16.80408 16.9819 17.1783 17.38884 17.60882 17.83346 18.05797 18.27769 18.48814 18.68514 18.86491 19.02412 19.16008 19.27095 19.35603 19.41596 19.45252 19.46819 19.46589 19.4488 19.42013 19.3831 19.34081 19.29614 19.25177 19.21 19.17211 19.13858 19.11192 19.09422 19.08693 19.09073 19.10558 19.13072 19.1649 19.20664 19.25442 19.30683 19.36263 19.42091 19.48103 19.54269 19.6059 19.67094 19.73834 19.80873 19.88286 19.96143 20.04498 20.13384 20.22792 20.32663 20.4288 20.53261 20.63748 20.74478 20.85388 20.96387 21.07357 21.18171 21.28693 21.38791 21.4834 21.57229 21.65362 21.72668 21.79098 21.84627 21.89261 21.93028 21.95982 21.9819 21.99732 22.00693 22.01161 22.01221 22.00947 22.00403 21.99634 21.98663 21.97488 21.96079 21.9424 21.91978 21.89438 21.86738 21.83972 21.81219 21.78542 21.75972 21.73508 21.71115 21.68727 21.66249 21.6357 21.60568 21.57119 21.53111 21.48451 21.43075 21.36959 21.3012 21.2262 21.14555 21.06043 20.97208 20.88183 20.79132 20.70252 20.61735 20.53049 20.44198 20.3548 20.27171 20.19512 20.12711 20.06931 20.02291 19.98865 19.96681 19.9573 19.95972 19.9735 19.99791 20.03215 20.07524 20.12604 20.18335 20.24592 20.31252 20.38201 20.45337 20.52572 20.59835 20.67072 20.74242 20.8132 20.8828 20.95097 21.0193 21.08928 21.16215 21.23878 21.31965 21.40478 21.49371 21.5855 21.67878 21.77177 21.86236 21.94818 22.02667 22.09517 22.15108 22.19189 22.21539 22.21976 22.20372 22.1667 22.10897 22.03172 21.9372 21.82862 21.71024 21.58723 21.46297 21.33225 21.19668 21.05875 20.92085 20.78522 20.65378 20.5281 20.40934 20.29818 20.19489 20.09932 20.01097 19.92917 19.85318 19.78225 19.71576 19.65324 19.59443 19.53931 19.48811 19.44129 19.39955 19.36374 19.33484 19.31382 19.30161 19.29887 19.30588 19.32255 19.34848 19.38288 19.42476 19.47301 19.52651 19.5841 19.64465 19.70709 19.77036 19.83344 19.89535 19.95516 20.01196
13.5745 13.82412 14.09077 14.37191 14.66455 14.96532 15.27055 15.57629 15.87845 16.17289 16.45554 16.72255 16.97041 17.19617 17.39758 17.57336 17.72342 17.84931 17.94999 18.02226 18.06462 18.07712 18.06121 18.0195 17.95561 17.87399 17.77976 17.67852 17.5762 17.47888 17.39265 17.32343 17.27675 17.2576 17.27012 17.31732 17.40072 17.52012 17.67356 17.85753 18.06718 18.29647 18.53836 18.78495 19.02766 19.27472 19.533 19.79228 20.04363 20.27955 20.49404 20.68267 20.84259 20.97252 21.07265 21.14448 21.19053 21.21411 21.21906 21.20951 21.1897 21.16383 21.13588 21.10948 21.08779 21.07337 21.06811 21.07309 21.08856 21.11387 21.14745 21.18681 21.22859 21.27112 21.3157 21.36336 21.41466 21.46964 21.52785 21.58832 21.64963 21.70994 21.76705 21.81852 21.86174 21.89404 21.9128 21.91559 21.90029 21.86521 21.80919 21.73173 21.63303 21.51394 21.37602 21.22151 21.05332 20.875 20.69069 20.5051 20.32242 20.13637 19.94671 19.75551 19.56428 19.37393 19.18486 18.99702 18.8101 18.62373 18.4376 18.25155 18.06572 17.88054 17.69689 17.51612 17.34012 17.17129 17.01254 16.86724 16.7391 16.63198 16.54974 16.49589 16.47327 16.48356 16.52681 16.60106 16.70298 16.83177 16.98529 17.16025 17.35273 17.55844 17.77281 17.99117 18.20887 18.42137 18.62432 18.81367 18.98577 19.13747 19.26626 19.3705 19.4496 19.50414 19.53572 19.5467 19.53989 19.51838 19.48537 19.44409 19.39763 19.34896 19.30076 19.25541 19.2142 19.17758 19.14818 19.12814 19.11897 19.1214 19.13544 19.16042 19.19515 19.23819 19.28798 19.34303 19.40201 19.46383 19.52769 19.5931 19.65984 19.728 19.79788 19.86993 19.94472 20.02281 20.10465 20.1905 20.28029 20.3735 20.46913 20.56557 20.6624 20.76094 20.8607 20.96088 21.06049 21.15841 21.25343 21.3444 21.4302 21.50983 21.58245 21.64742 21.70429 21.75289 21.79326 21.82571 21.85072 21.86896 21.88121 21.88832 21.89115 21.89056 21.88731 21.88207 21.8753 21.86728 21.85803 21.84727 21.83308 21.81555 21.79616 21.7761 21.75633 21.73758 21.72037 21.70491 21.69109 21.67844 21.66617 21.65322 21.6383 21.62003 21.59698 21.56781 21.53139 21.48683 21.43366 21.37182 21.30169 21.22402 21.13988 21.05053 20.9575 20.86263 20.76819 20.6764 20.58171 20.48425 20.38733 20.29404 20.20714 20.12901 20.06156 20.00622 19.96391 19.93508 19.91973 19.91752 19.92785 19.94994 19.98281 20.02536 20.07632 20.13435 20.19812 20.26629 20.33768 20.4112 20.48597 20.56126 20.63654 20.71143 20.78571 20.85915 20.9316 21.00465 21.07981 21.15825 21.2408 21.32789 21.41947 21.51503 21.6136 21.71375 21.81364 21.9111 22.00367 22.08869 22.16344 22.2252 22.27139 22.29972 22.30832 22.29586 22.26177 22.20631 22.13073 22.03727 21.92926 21.81102 21.68788 21.56325 21.43188 21.29551 21.1568 21.0183 20.88238 20.7511 20.62612 20.50865 20.39943 20.29873 20.20638 20.12188 20.04452 19.97345 19.90786 19.84701 19.79029 19.73733 19.68797 19.64232 19.60073 19.56378 19.53221 19.50691 19.48878 19.47864 19.47709 19.48434 19.50029 19.52457 19.5565 19.59518 19.63962 19.68876 19.74154 19.79694 19.85393 19.91154 19.96884 20.02493 20.07892 20.13001
13.35465 13.60398 13.87307 14.15904 14.45854 14.76784 15.08289 15.39941 15.71303 16.01937 16.31419 16.59352 16.85379 17.09207 17.30617 17.49489 17.65824 17.79789 17.91281 17.99971 18.05695 18.08448 18.08361 18.05689 18.00785 17.94084 17.86088 17.77343 17.68429 17.59937 17.52453 17.46545 17.42742 17.41511 17.43236 17.48192 17.56516 17.68186 17.83028 18.00716 18.20796 18.42698 18.65755 18.89213 19.12254 19.35665 19.60121 19.84668 20.08475 20.30845 20.5122 20.6919 20.84494 20.97012 21.06759 21.13872 21.18579 21.21186 21.22045 21.21538 21.20058 21.17994 21.15715 21.13556 21.11809 21.10711 21.10434 21.11077 21.12662 21.15126 21.1832 21.22011 21.25882 21.29774 21.33808 21.3808 21.42645 21.47511 21.52639 21.57944 21.63295 21.68524 21.73426 21.77773 21.81318 21.83809 21.84998 21.84652 21.8257 21.78589 21.72599 21.64551 21.54461 21.42414 21.28562 21.13127 20.96396 20.7872 20.6051 20.42229 20.24293 20.06094 19.87609 19.69046 19.50556 19.32233 19.1412 18.96219 18.78501 18.60927 18.43463 18.26085 18.08796 17.91629 17.74661 17.58014 17.4186 17.26423 17.11977 16.98836 16.87347 16.77872 16.70767 16.66352 16.64879 16.66489 16.71171 16.78737 16.88873 17.01517 17.16471 17.33426 17.52011 17.71815 17.92399 18.13317 18.34121 18.54376 18.73666 18.91606 19.0785 19.22104 19.34141 19.43815 19.51077 19.5598 19.58669 19.59361 19.58322 19.55849 19.52255 19.47855 19.42957 19.37857 19.32824 19.28097 19.23805 19.19991 19.16919 19.14805 19.13802 19.13988 19.15368 19.17885 19.21428 19.25859 19.31022 19.36766 19.42948 19.49449 19.56174 19.63055 19.70054 19.77158 19.84376 19.91737 19.99279 20.07043 20.15064 20.23361 20.31927 20.40718 20.49647 20.58577 20.67478 20.76479 20.85542 20.94602 21.03576 21.12365 21.20868 21.28982 21.36609 21.43663 21.50068 21.55767 21.60724 21.64921 21.68366 21.71088 21.73133 21.74567 21.75464 21.75908 21.75987 21.75786 21.75385 21.74853 21.74243 21.73587 21.72892 21.72136 21.71133 21.69894 21.68571 21.67286 21.66133 21.65183 21.64478 21.64029 21.63812 21.63768 21.63805 21.638 21.63609 21.63073 21.6203 21.60321 21.57807 21.54374 21.49946 21.44488 21.38012 21.30572 21.22262 21.1321 21.03584 20.93595 20.835 20.73556 20.63183 20.52407 20.41599 20.31104 20.21237 20.1227 20.04427 19.97875 19.9273 19.89051 19.8685 19.86097 19.86729 19.88657 19.91769 19.95938 20.01021 20.06872 20.13344 20.20295 20.27598 20.35142 20.42835 20.50606 20.58403 20.66194 20.7396 20.81686 20.89363 20.97154 21.05208 21.13638 21.22521 21.31892 21.41741 21.52012 21.62601 21.73359 21.84097 21.94588 22.04579 22.13797 22.21959 22.28784 22.34007 22.37391 22.38744 22.37932 22.34893 22.29657 22.22348 22.13198 22.02542 21.90824 21.78584 21.66171 21.53053 21.39421 21.25553 21.11722 20.98176 20.85134 20.7277 20.61213 20.50539 20.40778 20.31915 20.23897 20.16649 20.10081 20.04101 19.98624 19.9358 19.88916 19.84604 19.8064 19.77048 19.73871 19.71173 19.6903 19.6752 19.66716 19.66667 19.6739 19.68874 19.71086 19.73966 19.77436 19.81409 19.85792 19.90489 19.95408 20.00457 20.05549 20.106 20.15527 20.20254 20.24705
13.13661 13.38539 13.65662 13.94707 14.25306 14.57047 14.89491 15.2218 15.54648 15.86436 16.17105 16.46248 16.73508 16.98592 17.21291 17.41493 17.59212 17.74622 17.87621 17.97868 18.05189 18.09566 18.11122 18.10097 18.06835 18.0176 17.9536 17.88166 17.8074 17.73649 17.67458 17.62704 17.59884 17.59435 17.61707 17.66949 17.7528 17.86682 18.00994 18.17917 18.3703 18.57801 18.79602 19.01723 19.23387 19.45345 19.68258 19.91247 20.1355 20.34525 20.53663 20.70588 20.85062 20.96973 21.06334 21.13264 21.17969 21.20725 21.21852 21.21699 21.20625 21.18988 21.17127 21.15349 21.13924 21.13069 21.12941 21.13632 21.15161 21.17468 21.20417 21.23788 21.27287 21.30763 21.34329 21.38076 21.42057 21.46283 21.50719 21.55291 21.59879 21.64327 21.68447 21.72022 21.74822 21.76607 21.77141 21.76204 21.736 21.69175 21.62822 21.54492 21.442 21.32028 21.18126 21.02712 20.86071 20.68552 20.50562 20.32561 20.14962 19.97176 19.79187 19.612 19.43369 19.25793 19.08517 18.91551 18.74869 18.58434 18.42205 18.26153 18.1027 17.94578 17.7914 17.6406 17.49494 17.35644 17.2276 17.1113 17.01073 16.92917 16.86984 16.83559 16.8286 16.85 16.89958 16.97552 17.07489 17.19724 17.34079 17.50268 17.67947 17.86728 18.06201 18.25941 18.45528 18.64549 18.82613 18.99359 19.14468 19.27669 19.38759 19.47611 19.54183 19.58525 19.60766 19.61106 19.59791 19.57102 19.5334 19.48808 19.43809 19.3863 19.3354 19.28775 19.24461 19.20639 19.17566 19.15458 19.14467 19.14672 19.16086 19.18657 19.22288 19.26845 19.32178 19.38134 19.44568 19.51351 19.58376 19.65561 19.72851 19.80214 19.87642 19.95144 20.02742 20.10461 20.18325 20.26346 20.34516 20.42797 20.51116 20.59356 20.675 20.75674 20.83852 20.91981 20.99993 21.07807 21.15337 21.22494 21.29195 21.35362 21.40932 21.45854 21.50096 21.53646 21.56509 21.58714 21.60306 21.61346 21.61909 21.62076 21.61935 21.61573 21.61075 21.60513 21.59946 21.59415 21.58933 21.58487 21.57895 21.57173 21.56477 21.5593 21.55629 21.55638 21.55993 21.56695 21.57707 21.58957 21.60338 21.61712 21.62915 21.63768 21.64084 21.63679 21.62384 21.60057 21.56589 21.51915 21.46018 21.38928 21.30728 21.21547 21.11565 21.0102 20.90203 20.79409 20.68032 20.56114 20.44068 20.32283 20.21116 20.10876 20.01821 19.94149 19.87996 19.83441 19.80505 19.79162 19.79342 19.80946 19.83847 19.87899 19.92943 19.98816 20.05358 20.12417 20.1986 20.27569 20.35454 20.43444 20.51491 20.59566 20.6766 20.75762 20.83876 20.92162 21.00768 21.09804 21.1934 21.29405 21.39982 21.51007 21.62372 21.7392 21.85454 21.96741 22.07519 22.17506 22.2641 22.33943 22.39831 22.4383 22.45744 22.45435 22.42841 22.37992 22.31014 22.22142 22.11718 22.00189 21.88107 21.75825 21.62808 21.4926 21.35474 21.21735 21.08306 20.95414 20.83244 20.71931 20.61556 20.52151 20.43703 20.36159 20.29439 20.23448 20.18086 20.13257 20.08878 20.04885 20.01234 19.97908 19.94916 19.92288 19.90072 19.88331 19.87132 19.86533 19.86576 19.8727 19.88608 19.90557 19.93067 19.96073 19.995 20.03269 20.07297 20.11505 20.15813 20.20145 20.24428 20.28591 20.32565 20.36287
12.92163 13.16964 13.4427 13.7373 14.04937 14.37447 14.70786 15.04466 15.37995 15.70896 16.02716 16.33043 16.61519 16.87856 17.11853 17.33411 17.52552 17.69456 17.84021 17.95897 18.04897 18.10994 18.14297 18.15037 18.13545 18.10231 18.05567 18.00067 17.94269 17.88717 17.83946 17.80462 17.78728 17.79143 17.82027 17.87599 17.95966 18.07107 18.20875 18.36996 18.55082 18.74642 18.9509 19.15764 19.35932 19.56306 19.77535 19.9882 20.1947 20.38906 20.56668 20.72418 20.85938 20.97127 21.05993 21.1264 21.17247 21.20061 21.21367 21.21481 21.20727 21.19429 21.17897 21.16411 21.15218 21.14516 21.1445 21.15104 21.16495 21.18569 21.212 21.24187 21.27255 21.30264 21.33322 21.36515 21.39892 21.43466 21.47211 21.51056 21.54893 21.5858 21.61939 21.6477 21.66854 21.67963 21.67874 21.66375 21.63279 21.58436 21.51743 21.4315 21.32671 21.20386 21.06441 20.91054 20.74507 20.57147 20.3938 20.21663 20.04406 19.87044 19.69564 19.52173 19.35027 19.18227 19.01829 18.85844 18.70254 18.5502 18.401 18.25458 18.11075 17.96961 17.83162 17.69764 17.56901 17.44751 17.33536 17.23512 17.14964 17.08183 17.03453 17.01021 17.01069 17.03687 17.08843 17.16362 17.25975 17.37651 17.51234 17.66466 17.83031 18.00574 18.18713 18.37057 18.55212 18.72798 18.89452 19.04844 19.1868 19.30719 19.4078 19.48752 19.54602 19.58374 19.60187 19.60219 19.58698 19.55885 19.52063 19.47522 19.42552 19.37433 19.32424 19.27756 19.23553 19.1985 19.16895 19.14898 19.14006 19.14301 19.15801 19.18463 19.22198 19.26882 19.32372 19.38516 19.45169 19.52196 19.59482 19.66932 19.74477 19.82069 19.89683 19.97309 20.04952 20.12623 20.20334 20.2809 20.35879 20.43669 20.514 20.58976 20.66391 20.73767 20.81088 20.88317 20.95399 21.02271 21.08859 21.15091 21.20895 21.26206 21.30968 21.35139 21.38689 21.4161 21.43907 21.45607 21.46753 21.47403 21.47629 21.47512 21.47141 21.46605 21.45992 21.45381 21.44839 21.44415 21.44131 21.43983 21.43797 21.43592 21.43527 21.43729 21.44293 21.45283 21.46726 21.48614 21.509 21.53496 21.56281 21.59099 21.61765 21.64079 21.65828 21.66799 21.66794 21.65637 21.63184 21.59339 21.54053 21.47334 21.3925 21.29932 21.19573 21.08435 20.96845 20.85136 20.72679 20.59531 20.46155 20.32985 20.20421 20.08817 19.98463 19.89591 19.82361 19.76868 19.73143 19.71162 19.7085 19.72095 19.74754 19.78661 19.8364 19.8951 19.96097 20.0324 20.10796 20.18646 20.26698 20.34883 20.43158 20.51502 20.59911 20.68383 20.76932 20.85718 20.94885 21.04538 21.14742 21.25521 21.36849 21.48657 21.60829 21.732 21.85568 21.9769 22.09296 22.20096 22.29789 22.38079 22.44684 22.49355 22.5189 22.52147 22.50066 22.45674 22.39101 22.30583 22.20467 22.09206 21.97357 21.85279 21.72437 21.59045 21.4541 21.3183 21.18579 21.05895 20.93971 20.82949 20.72917 20.6391 20.55914 20.48877 20.42718 20.37335 20.32621 20.28468 20.24783 20.21487 20.18525 20.15862 20.13492 20.1143 20.0971 20.08379 20.07488 20.07085 20.072 20.07841 20.08998 20.10645 20.12737 20.15223 20.18041 20.21127 20.24415 20.27837 20.31329 20.34827 20.38271 20.416 20.44759 20.47693
12.71101 12.95802 13.23264 13.53103 13.8488 14.18114 14.523 14.86921 15.21463 15.5543 15.88359 16.19834 16.49499 16.77072 17.02364 17.25285 17.45866 17.64293 17.80459 17.94006 18.04738 18.12618 18.17743 18.20333 18.20705 18.19253 18.16432 18.12735 18.08676 18.04771 18.01522 17.99401 17.98834 18.00183 18.03734 18.0968 18.18111 18.29005 18.42225 18.57523 18.74544 18.92837 19.11863 19.31008 19.49591 19.68284 19.87721 20.07189 20.26073 20.43858 20.60135 20.74605 20.87072 20.97445 21.05727 21.12005 21.16434 21.19227 21.20637 21.20942 21.20432 21.19399 21.1812 21.1685 21.15813 21.1519 21.15113 21.1566 21.16846 21.18625 21.2088 21.23428 21.26015 21.28514 21.31028 21.33637 21.36391 21.39303 21.42351 21.45473 21.4857 21.5151 21.54128 21.56236 21.57627 21.58086 21.574 21.55364 21.518 21.46561 21.39546 21.30705 21.20053 21.07664 20.93685 20.78331 20.61883 20.44687 20.27146 20.09718 19.92812 19.75883 19.58926 19.42149 19.2571 19.09717 18.94229 18.79266 18.64813 18.50834 18.37283 18.24118 18.1131 17.98855 17.86781 17.75154 17.64083 17.53718 17.44249 17.35898 17.2891 17.23538 17.20022 17.18571 17.19335 17.22377 17.27659 17.35014 17.44197 17.55191 17.67861 17.81978 17.97261 18.13389 18.30015 18.46784 18.63338 18.79329 18.9443 19.08341 19.20801 19.31595 19.40566 19.47618 19.52723 19.55924 19.57325 19.57088 19.5542 19.5256 19.4877 19.44324 19.39495 19.34551 19.2974 19.25285 19.21305 19.17828 19.15092 19.13296 19.1258 19.13029 19.14662 19.17446 19.21301 19.26114 19.31747 19.38057 19.44897 19.52131 19.59637 19.67313 19.75076 19.82864 19.90636 19.98366 20.06041 20.13659 20.21217 20.28714 20.36136 20.43454 20.5062 20.57556 20.64269 20.70876 20.77372 20.83734 20.89922 20.95886 21.01569 21.06911 21.11854 21.16343 21.20329 21.23778 21.26664 21.2898 21.30732 21.31943 21.32654 21.32922 21.32814 21.32413 21.31805 21.31085 21.30345 21.29671 21.29139 21.28806 21.28708 21.28847 21.29058 21.29365 21.29928 21.30878 21.32312 21.34289 21.36832 21.39924 21.43506 21.47478 21.51702 21.56003 21.60178 21.64 21.6723 21.69628 21.7096 21.71017 21.69619 21.66635 21.61985 21.55654 21.47697 21.38242 21.27495 21.15743 21.03349 20.90685 20.77097 20.62664 20.47895 20.33275 20.19253 20.06222 19.94514 19.84389 19.76034 19.69562 19.65012 19.6236 19.61528 19.62387 19.64779 19.68517 19.73407 19.79251 19.85859 19.9306 20.00704 20.08669 20.16862 20.25218 20.33701 20.42295 20.51004 20.59837 20.68815 20.78097 20.87824 20.98097 21.08975 21.20475 21.32567 21.45173 21.58169 21.71385 21.84609 21.97592 22.10055 22.217 22.32217 22.41302 22.48667 22.54056 22.57261 22.5814 22.56629 22.52755 22.4665 22.38552 22.28811 22.17886 22.06337 21.94526 21.81922 21.68749 21.55326 21.41961 21.2894 21.16512 21.04877 20.94186 20.84531 20.75951 20.68436 20.61932 20.56357 20.51603 20.47554 20.44096 20.41122 20.38539 20.36278 20.3429 20.32552 20.31063 20.2984 20.28915 20.28323 20.28101 20.28268 20.2883 20.29777 20.31084 20.32719 20.34638 20.36798 20.39148 20.41638 20.44216 20.46834 20.49442 20.51992 20.54437 20.56732 20.58836
12.50614 12.75194 13.02782 13.32965 13.65269 13.99181 14.34163 14.69671 15.0517 15.40149 15.74137 16.06714 16.37529 16.66309 16.92872 17.17143 17.39161 17.59112 17.76887 17.92119 18.04606 18.14299 18.21287 18.25776 18.28069 18.28546 18.27639 18.25821 18.23579 18.21397 18.19745 18.19057 18.1972 18.22058 18.26323 18.32681 18.41206 18.51871 18.64551 18.7902 18.94957 19.11953 19.29516 19.47081 19.64023 19.8097 19.98544 20.16121 20.33162 20.49219 20.63936 20.77051 20.88394 20.97883 21.05514 21.11358 21.15545 21.18257 21.19709 21.20145 21.1982 21.18991 21.17904 21.16791 21.15851 21.15248 21.15104 21.1549 21.16422 21.17856 21.1969 21.21756 21.23823 21.25777 21.27716 21.29718 21.31829 21.34068 21.36414 21.38812 21.41175 21.43377 21.45267 21.46667 21.47384 21.47212 21.45947 21.43394 21.39379 21.3376 21.26437 21.17361 21.06544 20.94061 20.80056 20.64741 20.48398 20.31371 20.14064 19.96932 19.80383 19.63899 19.47479 19.31332 19.1562 19.00456 18.85907 18.71998 18.58719 18.46035 18.33899 18.22262 18.11084 18.00347 17.9006 17.80266 17.71048 17.62525 17.54852 17.48214 17.42815 17.38864 17.36559 17.36069 17.37511 17.40927 17.46271 17.53387 17.62055 17.72268 17.83915 17.96797 18.10669 18.25247 18.40225 18.55286 18.70111 18.84391 18.97834 19.10175 19.21185 19.30679 19.38519 19.44625 19.48976 19.51609 19.52618 19.52147 19.50381 19.47538 19.43856 19.39589 19.34993 19.30318 19.258 19.21651 19.17984 19.14824 19.12389 19.10867 19.10392 19.11045 19.12851 19.15783 19.19771 19.24711 19.30475 19.36926 19.43921 19.51325 19.59012 19.66873 19.74815 19.82764 19.90664 19.98475 20.06166 20.13721 20.21126 20.28369 20.35434 20.42297 20.48917 20.55238 20.61276 20.67142 20.72846 20.78376 20.83706 20.88801 20.93618 20.98111 21.02231 21.05934 21.09182 21.11942 21.14196 21.15935 21.17165 21.17909 21.18203 21.181 21.17667 21.16983 21.1614 21.15231 21.14356 21.13609 21.13073 21.12818 21.12891 21.13305 21.13902 21.14709 21.1589 21.17579 21.19874 21.22832 21.26471 21.30765 21.35646 21.41001 21.46674 21.52472 21.58172 21.63523 21.68259 21.72107 21.74802 21.76098 21.75779 21.73678 21.69683 21.63756 21.55937 21.46352 21.3522 21.2285 21.09642 20.96008 20.81269 20.65525 20.49337 20.33241 20.17731 20.03246 19.90157 19.78757 19.69256 19.61785 19.56393 19.53055 19.51685 19.52142 19.54249 19.578 19.62582 19.68377 19.74983 19.82216 19.89922 19.97974 20.06281 20.14783 20.23449 20.32271 20.41263 20.50441 20.59836 20.69604 20.79882 20.90767 21.02314 21.14533 21.27387 21.40793 21.54618 21.68685 21.82775 21.96631 22.09966 22.22474 22.33837 22.43744 22.51898 22.58039 22.61954 22.63497 22.62602 22.59296 22.53712 22.46089 22.3678 22.26245 22.15051 22.03561 21.91248 21.78345 21.65183 21.52079 21.39331 21.27195 21.15882 21.05549 20.96294 20.88163 20.81145 20.7519 20.70209 20.66093 20.62718 20.59959 20.57698 20.5583 20.5427 20.52955 20.51846 20.50923 20.50188 20.49656 20.49348 20.49286 20.49483 20.49939 20.50646 20.51584 20.52726 20.54043 20.55505 20.57078 20.58729 20.60423 20.62127 20.63805 20.65424 20.66952 20.68355 20.69602
12.3085 12.55286 12.82972 13.13462 13.46249 13.80787 14.16508 14.52843 14.89237 15.25166 15.60151 15.93773 16.25685 16.55623 16.83418 17.09004 17.32428 17.53879 17.73241 17.90142 18.04373 18.15878 18.24734 18.31136 18.35372 18.37805 18.38849 18.3895 18.38568 18.38157 18.38148 18.38939 18.40876 18.44245 18.49262 18.56066 18.64713 18.75172 18.87329 19.00978 19.15833 19.31525 19.4761 19.63577 19.78853 19.94027 20.09707 20.25357 20.40519 20.54809 20.67926 20.79646 20.89824 20.98386 21.05325 21.10693 21.14596 21.17183 21.18635 21.19159 21.18973 21.18303 21.17365 21.16364 21.15478 21.14855 21.14605 21.14792 21.15434 21.16491 21.17873 21.19427 21.20946 21.22329 21.2367 21.25043 21.26497 21.2805 21.29687 21.3136 21.32989 21.34458 21.35628 21.36331 21.36384 21.35593 21.33762 21.30703 21.26248 21.20259 21.12637 21.03334 20.9236 20.79789 20.65764 20.50495 20.34264 20.17414 20.00348 19.83521 19.6734 19.51311 19.35439 19.19935 19.04966 18.90649 18.7706 18.64228 18.5215 18.4079 18.30101 18.20025 18.10513 18.01531 17.93068 17.85144 17.77812 17.7116 17.65307 17.60398 17.56594 17.54059 17.5295 17.53394 17.55477 17.59221 17.64573 17.7139 17.79478 17.88838 17.99382 18.10943 18.23313 18.3625 18.49487 18.62751 18.75764 18.88256 18.99974 19.10691 19.2021 19.28371 19.35061 19.40213 19.4381 19.45888 19.46527 19.45855 19.44033 19.41258 19.37744 19.33723 19.29431 19.25099 19.20948 19.17177 19.13891 19.11114 19.09044 19.07853 19.07668 19.08566 19.10574 19.13673 19.17801 19.22863 19.28744 19.35311 19.4243 19.49965 19.57791 19.65794 19.73874 19.81948 19.89944 19.97808 20.05496 20.12976 20.20222 20.27214 20.33931 20.40351 20.46446 20.52174 20.57561 20.62718 20.67662 20.72396 20.76908 20.81175 20.85169 20.88854 20.92194 20.95154 20.97701 20.99812 21.01467 21.02661 21.03399 21.03699 21.03596 21.03139 21.02393 21.01437 21.0036 20.99263 20.98249 20.9742 20.96871 20.96683 20.96912 20.97586 20.98553 20.99843 21.01624 21.04033 21.07167 21.11085 21.15799 21.21277 21.27439 21.34158 21.41265 21.4855 21.55766 21.62639 21.68877 21.74176 21.78238 21.80779 21.81548 21.8034 21.77014 21.71506 21.6384 21.54142 21.42639 21.29667 21.15656 21.01063 20.85183 20.68138 20.5054 20.32976 20.15988 20.00059 19.85598 19.72928 19.62288 19.53822 19.47589 19.43565 19.41654 19.41703 19.43514 19.46866 19.5152 19.57246 19.63826 19.71066 19.78805 19.86916 19.95308 20.03928 20.12749 20.21775 20.31027 20.40529 20.50322 20.60557 20.71369 20.8285 20.95049 21.07972 21.21576 21.35769 21.50414 21.65325 21.80276 21.95003 22.09211 22.22585 22.34803 22.45543 22.54504 22.61419 22.6607 22.68307 22.68062 22.65363 22.6034 22.53235 22.44402 22.34304 22.23508 22.1238 22.004 21.87809 21.74945 21.62138 21.49691 21.37874 21.26903 21.16945 21.08104 21.00429 20.93915 20.88509 20.84123 20.80641 20.77932 20.75863 20.74304 20.73137 20.72264 20.71606 20.71107 20.70732 20.70465 20.70303 20.70254 20.70327 20.70526 20.70851 20.71291 20.71831 20.72452 20.73139 20.73874 20.74643 20.75428 20.76213 20.76978 20.77705 20.78376 20.7897 20.79467 20.79847
12.11968 12.36238 12.6399 12.94747 13.27969 13.63076 13.99475 14.36569 14.73787 15.10593 15.46502 15.81098 16.14038 16.45069 16.74033 17.00875 17.25649 17.48547 17.69446 17.8797 18.03903 18.17183 18.27877 18.3617 18.42335 18.46717 18.4971 18.51736 18.53226 18.54599 18.56254 18.58546 18.61782 18.66208 18.72005 18.79283 18.88079 18.98361 19.10019 19.22872 19.36665 19.51071 19.65694 19.80076 19.93696 20.07107 20.20901 20.34632 20.47916 20.6044 20.71955 20.82275 20.91279 20.98901 21.05131 21.10005 21.13603 21.16041 21.17466 21.1805 21.17975 21.17434 21.16616 21.15698 21.14839 21.14171 21.13791 21.13759 21.14091 21.14753 21.15664 21.1669 21.17645 21.1844 21.19166 21.19897 21.20681 21.21539 21.2246 21.23404 21.24296 21.25034 21.25486 21.25496 21.2489 21.23485 21.21092 21.17533 21.12644 21.06289 20.98373 20.88847 20.7772 20.65067 20.51027 20.35812 20.197 20.03036 19.86222 19.69709 19.53905 19.3834 19.23027 19.08177 18.93961 18.80505 18.67888 18.56149 18.45286 18.35267 18.26041 18.17543 18.09714 18.02501 17.95875 17.89831 17.84394 17.79617 17.75583 17.72396 17.70174 17.69036 17.69096 17.70443 17.7313 17.77161 17.82478 17.88953 17.96415 18.04876 18.14267 18.24457 18.35273 18.46515 18.57962 18.69381 18.80539 18.91207 19.01172 19.10242 19.18255 19.25078 19.30618 19.34823 19.3768 19.39221 19.39515 19.38671 19.36831 19.34166 19.30868 19.27144 19.23208 19.19273 19.15541 19.12198 19.09343 19.06996 19.05334 19.04514 19.04652 19.05821 19.08051 19.11326 19.15594 19.20771 19.26749 19.33406 19.40613 19.48239 19.56161 19.64262 19.72437 19.80593 19.88649 19.96537 20.042 20.11589 20.18669 20.25407 20.31782 20.37773 20.43358 20.48514 20.53276 20.57753 20.61973 20.65949 20.69685 20.73169 20.76385 20.79309 20.81914 20.84175 20.86066 20.87567 20.88662 20.89346 20.89623 20.89509 20.89033 20.88243 20.87201 20.85983 20.84682 20.834 20.82247 20.81333 20.80763 20.80629 20.81001 20.81917 20.83233 20.84981 20.87335 20.90433 20.94376 20.99219 21.04972 21.11595 21.18998 21.27043 21.35545 21.44276 21.52972 21.61334 21.69044 21.75769 21.81178 21.84951 21.86802 21.8649 21.83841 21.78765 21.71273 21.61485 21.49642 21.36099 21.21323 21.05808 20.88827 20.70527 20.51568 20.32585 20.14167 19.96839 19.81047 19.67147 19.55399 19.45967 19.38914 19.34219 19.31777 19.31421 19.32935 19.36077 19.4059 19.46227 19.52756 19.59974 19.67717 19.75855 19.84301 19.93006 20.01953 20.11152 20.20636 20.30436 20.40599 20.51275 20.62594 20.74644 20.8747 21.01071 21.15399 21.30356 21.45798 21.61532 21.77325 21.92906 22.07973 22.22205 22.35271 22.46844 22.56615 22.64312 22.69713 22.72662 22.7309 22.71022 22.66589 22.60033 22.51709 22.42082 22.31717 22.20984 22.09368 21.97119 21.84581 21.72093 21.59969 21.48483 21.37865 21.28286 21.19859 21.12637 21.06619 21.01752 20.97946 20.9508 20.93017 20.91614 20.9073 20.90236 20.9002 20.89987 20.90066 20.90205 20.90372 20.90549 20.90727 20.90904 20.91076 20.91239 20.91385 20.91501 20.91578 20.91612 20.91603 20.91551 20.91457 20.9132 20.9114 20.90913 20.90633 20.90295 20.8989 20.89409
11.94141 12.1822 12.46004 12.76983 13.10586 13.46201 13.83205 14.20982 14.58943 14.96541 15.33289 15.68772 16.02654 16.34693 16.64742 16.92759 17.18803 17.43068 17.65424 17.85493 18.03055 18.18041 18.30511 18.40637 18.48681 18.54969 18.59875 18.63796 18.67134 18.70277 18.73586 18.77378 18.81918 18.87413 18.94007 19.01781 19.10754 19.20888 19.32082 19.44176 19.56947 19.7011 19.83315 19.96156 20.08167 20.19862 20.3182 20.43678 20.55132 20.65931 20.75877 20.84825 20.92676 20.99375 21.04906 21.0929 21.12581 21.14864 21.16253 21.16883 21.16905 21.16478 21.15764 21.14915 21.1407 21.13344 21.12826 21.12568 21.12584 21.12847 21.13284 21.13777 21.1416 21.1436 21.14465 21.14545 21.14651 21.14807 21.15007 21.15216 21.1537 21.15374 21.15107 21.14422 21.13158 21.11138 21.08184 21.04124 20.98799 20.92079 20.83868 20.74121 20.62844 20.50112 20.36063 20.20908 20.04926 19.88458 19.71906 19.55718 19.40301 19.25209 19.10463 18.96274 18.82818 18.70228 18.5859 18.47948 18.38305 18.2963 18.21868 18.14948 18.08797 18.03348 17.9855 17.94373 17.90813 17.87892 17.85653 17.8416 17.83488 17.83714 17.84909 17.87123 17.9038 17.94665 17.99917 18.06021 18.12832 18.2037 18.28588 18.37387 18.46634 18.56168 18.65813 18.75381 18.8468 18.93524 19.0174 19.09174 19.15693 19.21194 19.25604 19.28884 19.31025 19.32054 19.32031 19.31046 19.2922 19.26699 19.23652 19.20261 19.16718 19.13215 19.09937 19.07053 19.04658 19.02769 19.01541 19.01113 19.01592 19.03046 19.05504 19.08956 19.13358 19.18634 19.24686 19.31401 19.38659 19.46334 19.54305 19.62456 19.70678 19.78872 19.86949 19.94827 20.02436 20.09716 20.16616 20.23099 20.29134 20.34704 20.39796 20.444 20.48562 20.5239 20.55921 20.59183 20.62187 20.64936 20.67424 20.69638 20.71559 20.7317 20.7445 20.75385 20.75961 20.76174 20.76025 20.75527 20.74708 20.73609 20.7229 20.70827 20.69313 20.67854 20.66565 20.65564 20.64967 20.64877 20.65376 20.66514 20.68154 20.70331 20.73222 20.7697 20.81676 20.87396 20.94135 21.01847 21.10432 21.1974 21.29573 21.39687 21.49798 21.59588 21.68713 21.76815 21.83529 21.88504 21.91417 21.91991 21.90021 21.85391 21.78095 21.68253 21.56112 21.42051 21.26569 21.10197 20.9219 20.72716 20.52482 20.32169 20.12409 19.93766 19.7672 19.61658 19.48863 19.38514 19.30683 19.25348 19.22397 19.21648 19.22868 19.25794 19.30153 19.3568 19.42132 19.49299 19.57011 19.65141 19.73606 19.8236 19.91397 20.00737 20.10417 20.20482 20.30982 20.42064 20.53855 20.66438 20.79855 20.94098 21.09114 21.24799 21.41003 21.57526 21.74129 21.90534 22.06433 22.21499 22.35393 22.47784 22.58357 22.66832 22.72982 22.76649 22.77759 22.76336 22.7251 22.66524 22.58732 22.49599 22.3969 22.29373 22.18144 22.06258 21.94065 21.81911 21.70117 21.58968 21.487 21.39493 21.31468 21.24684 21.19141 21.1479 21.11535 21.09254 21.078 21.07023 21.06772 21.06906 21.07299 21.07844 21.08454 21.09062 21.09618 21.1009 21.10454 21.10697 21.10808 21.10779 21.10602 21.1027 21.09782 21.09148 21.08382 21.07503 21.06528 21.05474 21.04356 21.03184 21.01969 21.00715 20.99427 20.98106
11.77553 12.01414 12.29191 12.60342 12.94264 13.30315 13.67845 14.06217 14.44826 14.8312 15.20608 15.56876 15.91599 16.24542 16.55573 16.84658 17.11866 17.37391 17.61098 17.82606 18.01694 18.18286 18.32437 18.44307 18.54145 18.62262 18.6901 18.74762 18.79892 18.84758 18.89684 18.94949 19.00779 19.07339 19.14736 19.23022 19.32197 19.42217 19.52989 19.64376 19.76186 19.88173 20.00035 20.11413 20.21896 20.31961 20.42171 20.52248 20.61956 20.71109 20.79559 20.87196 20.93947 20.99765 21.0463 21.08549 21.1155 21.13688 21.15045 21.15722 21.15836 21.15519 21.14903 21.1412 21.13287 21.12505 21.11851 21.11372 21.11079 21.1095 21.10921 21.10888 21.10705 21.10312 21.09794 21.09222 21.08648 21.08098 21.07574 21.07046 21.06459 21.05727 21.04737 21.03355 21.01428 20.98789 20.95269 20.90703 20.84939 20.77849 20.69341 20.5937 20.47944 20.35136 20.21084 20.05998 19.90155 19.73895 19.57617 19.41766 19.26745 19.12134 18.9796 18.84436 18.71742 18.60017 18.49355 18.39806 18.31376 18.24037 18.17726 18.12367 18.07873 18.0416 18.01158 17.98812 17.97089 17.95978 17.95488 17.95643 17.96475 17.98021 18.00308 18.03352 18.07147 18.1166 18.16826 18.22546 18.287 18.35315 18.42368 18.49788 18.57482 18.65331 18.73201 18.80946 18.88419 18.95474 19.01978 19.07812 19.12875 19.17092 19.20409 19.22798 19.24257 19.24809 19.24499 19.23402 19.21617 19.19268 19.16496 19.13463 19.10335 19.07285 19.04478 19.02069 19.00144 18.98723 18.97937 18.97909 18.98731 19.0047 19.03152 19.06772 19.11292 19.16645 19.22742 19.2948 19.36745 19.44421 19.5239 19.60538 19.68755 19.76938 19.8499 19.92819 20.00343 20.0749 20.14197 20.20415 20.26111 20.31268 20.35881 20.39954 20.43543 20.46755 20.49639 20.5223 20.54554 20.56622 20.58437 20.59995 20.61287 20.62299 20.6302 20.63436 20.63538 20.6332 20.62783 20.61937 20.60805 20.59424 20.57852 20.56163 20.54451 20.52825 20.51406 20.5032 20.49692 20.49636 20.50246 20.51584 20.53518 20.56087 20.59472 20.6382 20.69235 20.75771 20.83429 20.92156 21.01843 21.1233 21.23405 21.34811 21.46246 21.57376 21.67834 21.77237 21.85192 21.91318 21.95256 21.96697 21.95403 21.91231 21.84161 21.74306 21.61926 21.47419 21.31316 21.14181 20.95255 20.74726 20.53343 20.31828 20.10852 19.91015 19.72827 19.56703 19.42947 19.31753 19.23203 19.17273 19.13845 19.12723 19.13657 19.16364 19.20555 19.25949 19.32295 19.39377 19.47022 19.55105 19.63548 19.72312 19.81399 19.90838 20.00677 20.10967 20.21762 20.33209 20.45428 20.585 20.72461 20.87301 21.02959 21.19326 21.36245 21.53511 21.70879 21.88065 22.04756 22.20619 22.3531 22.48491 22.59843 22.69079 22.75968 22.80347 22.82137 22.81362 22.7815 22.72745 22.65499 22.56877 22.47439 22.37554 22.26727 22.15217 22.03379 21.91565 21.80103 21.69284 21.59354 21.50502 21.42855 21.36481 21.31381 21.27507 21.24763 21.23018 21.22123 21.21917 21.2224 21.2294 21.2388 21.2494 21.26018 21.27032 21.2792 21.28632 21.29133 21.29397 21.29406 21.2915 21.28622 21.27817 21.26746 21.25432 21.23907 21.22203 21.20356 21.184 21.16364 21.14273 21.1215 21.10012 21.07875 21.05749
11.62399 11.8601 12.13734 12.45001 12.7917 13.15575 13.53538 13.92406 14.31559 14.70439 15.08552 15.4549 15.80934 16.1466 16.46548 16.76575 17.04819 17.31472 17.56397 17.79213 17.99696 18.17767 18.33473 18.46967 18.58484 18.6832 18.76805 18.84293 18.91129 18.9764 19.04118 19.10805 19.17887 19.25491 19.33686 19.42494 19.51894 19.61837 19.72239 19.82984 19.93913 20.04818 20.15441 20.25468 20.34539 20.43096 20.51689 20.60113 20.68203 20.75826 20.82885 20.89305 20.95036 21.0004 21.04294 21.0779 21.10533 21.1255 21.13889 21.1462 21.14832 21.14628 21.14115 21.13402 21.12588 21.1176 21.10983 21.10296 21.09713 21.0921 21.08732 21.08189 21.07454 21.06479 21.05346 21.04127 21.02876 21.01623 21.00375 20.9911 20.97781 20.9631 20.94595 20.92512 20.89916 20.86653 20.8256 20.77481 20.71269 20.63803 20.54994 20.44797 20.33222 20.2034 20.0629 19.91281 19.75588 19.59549 19.43559 19.28056 19.13441 18.99317 18.85719 18.72861 18.60927 18.50061 18.40365 18.31895 18.24662 18.18635 18.13749 18.09916 18.07038 18.05015 18.03755 18.03181 18.03234 18.03869 18.05062 18.06799 18.09074 18.11883 18.15214 18.19048 18.2335 18.28071 18.33143 18.3848 18.43989 18.49704 18.55622 18.61706 18.67897 18.74116 18.8027 18.86256 18.91967 18.973 19.02157 19.06454 19.10122 19.1311 19.15386 19.16933 19.17754 19.17866 19.17303 19.16124 19.14405 19.12246 19.09767 19.07104 19.04401 19.01811 18.99479 18.97544 18.96089 18.95131 18.94781 18.95143 18.96299 18.98309 19.012 19.04969 19.09583 19.14983 19.21088 19.27805 19.3503 19.42653 19.50563 19.58649 19.66804 19.7492 19.82895 19.90631 19.98034 20.0502 20.11514 20.17458 20.22814 20.27564 20.31713 20.35276 20.38321 20.40954 20.43234 20.45207 20.46906 20.48352 20.49556 20.5052 20.51241 20.51714 20.51929 20.51877 20.51551 20.50947 20.50063 20.48906 20.47495 20.45862 20.44062 20.42168 20.40276 20.38497 20.36957 20.3579 20.35129 20.35098 20.35803 20.37316 20.39511 20.42431 20.46261 20.51152 20.5721 20.64488 20.72983 20.82634 20.93324 21.04883 21.17088 21.2967 21.42314 21.54668 21.6635 21.76954 21.86064 21.93269 21.98181 22.00458 21.99829 21.96128 21.89314 21.795 21.66953 21.52093 21.35477 21.17703 20.97998 20.7657 20.54202 20.31654 20.09628 19.88753 19.69568 19.52511 19.37906 19.2596 19.16765 19.10298 19.06434 19.04965 19.05622 19.08107 19.12113 19.1735 19.23556 19.30514 19.3805 19.46043 19.54419 19.63148 19.72241 19.81735 19.91688 20.02156 20.132 20.2496 20.37556 20.51065 20.65519 20.809 20.97145 21.14137 21.31715 21.49668 21.67746 21.85659 22.0309 22.197 22.35144 22.49076 22.61172 22.71142 22.78748 22.83821 22.86281 22.86147 22.83549 22.78727 22.72034 22.63931 22.54976 22.45533 22.35118 22.23992 22.12514 22.01039 21.89902 21.79401 21.69789 21.61265 21.53964 21.47959 21.43258 21.39811 21.37521 21.36252 21.35849 21.36142 21.36963 21.38152 21.39559 21.41053 21.42521 21.43867 21.45015 21.45901 21.46479 21.46711 21.46572 21.4605 21.45137 21.43836 21.42166 21.40166 21.37882 21.35365 21.32665 21.29832 21.2691 21.23937 21.20947 21.1797 21.15029 21.12146
11.4888 11.72204 11.99825 12.31137 12.65473 13.02136 13.40429 13.79679 14.19258 14.586 14.97212 15.34689 15.7072 16.05093 16.37697 16.6852 16.97649 17.25278 17.51266 17.75234 17.96956 18.16352 18.33464 18.48434 18.61486 18.729 18.8299 18.92086 19.0051 19.0856 19.16497 19.24529 19.32805 19.41414 19.5039 19.5972 19.69366 19.79271 19.89365 19.99551 20.09701 20.19644 20.2916 20.3798 20.45789 20.52998 20.60141 20.67081 20.73715 20.79962 20.85768 20.91092 20.95906 21.00184 21.039 21.0703 21.09559 21.11484 21.12827 21.13628 21.13948 21.13865 21.13462 21.12828 21.12046 21.11186 21.10304 21.09434 21.08583 21.07732 21.06831 21.05803 21.04538 21.02999 21.01266 20.99413 20.97495 20.95547 20.93581 20.91583 20.89514 20.87306 20.84866 20.82079 20.78811 20.74916 20.70243 20.64643 20.57976 20.50128 20.41011 20.30585 20.1886 20.05907 19.91866 19.76943 19.61411 19.45606 19.29916 19.14775 19.00575 18.86946 18.73926 18.61732 18.50551 18.40532 18.31785 18.24372 18.18307 18.13558 18.10055 18.07699 18.0638 18.0598 18.0639 18.07511 18.09255 18.11553 18.14345 18.17583 18.21224 18.25228 18.29547 18.34127 18.38909 18.43824 18.48802 18.53769 18.58662 18.63521 18.68361 18.73176 18.77942 18.82615 18.87144 18.91464 18.95509 18.99213 19.02513 19.0536 19.07713 19.09546 19.10847 19.11611 19.11844 19.11559 19.10781 19.09546 19.07913 19.0596 19.03782 19.01493 18.99216 18.97082 18.95218 18.93746 18.92745 18.92234 18.92301 18.93032 18.945 18.96758 18.99832 19.03721 19.08397 19.13804 19.19874 19.2652 19.33648 19.41157 19.48945 19.56906 19.64932 19.72919 19.80761 19.88352 19.95591 20.02383 20.08641 20.14298 20.1931 20.23661 20.27361 20.30439 20.32971 20.35068 20.36796 20.38209 20.39346 20.40236 20.40895 20.41333 20.41551 20.41546 20.41315 20.4085 20.40148 20.39204 20.38017 20.36588 20.34932 20.33078 20.31078 20.29003 20.2695 20.25034 20.23385 20.22143 20.21449 20.21438 20.22222 20.23885 20.26306 20.29531 20.3375 20.39118 20.45744 20.53679 20.62914 20.73383 20.84958 20.97462 21.10663 21.24281 21.37992 21.51432 21.64203 21.75883 21.86036 21.94229 22.00045 22.03115 22.03135 21.99913 21.93393 21.83681 21.71055 21.55954 21.38962 21.207 21.00389 20.78252 20.55103 20.31726 20.08851 19.87131 19.67127 19.49294 19.33975 19.21389 19.11638 19.04702 19.0045 18.98662 18.99054 19.0131 19.05112 19.1016 19.16188 19.22977 19.30357 19.3821 19.4647 19.55115 19.64164 19.73664 19.83681 19.94278 20.05516 20.17534 20.3045 20.44337 20.59222 20.75084 20.91851 21.09405 21.27576 21.46151 21.64872 21.83448 22.01557 22.18856 22.34996 22.49629 22.62426 22.73091 22.81382 22.87124 22.90233 22.90727 22.88733 22.84493 22.78356 22.70778 22.62313 22.53318 22.43321 22.32584 22.21467 22.10328 21.99505 21.89304 21.79984 21.71753 21.64755 21.59071 21.54712 21.51631 21.49726 21.48858 21.48864 21.49569 21.50797 21.5238 21.54159 21.55992 21.57756 21.59343 21.60665 21.61647 21.6223 21.62368 21.62029 21.61197 21.59866 21.58043 21.55761 21.53071 21.50037 21.46724 21.43199 21.39524 21.35757 21.31948 21.28144 21.24381 21.20694 21.1711
11.37201 11.60195 11.8765 12.1893 12.53336 12.90149 13.28652 13.6816 14.08033 14.47701 14.86673 15.24547 15.61019 15.95886 16.29049 16.60507 16.90354 17.18787 17.45664 17.70608 17.93395 18.13941 18.32284 18.48558 18.62976 18.75804 18.87338 18.97888 19.07754 19.17208 19.26483 19.35756 19.45144 19.54702 19.64426 19.74273 19.84182 19.94094 20.0395 20.13676 20.23172 20.32298 20.40871 20.4866 20.55389 20.61442 20.67337 20.72997 20.78371 20.83426 20.88146 20.92521 20.96545 21.00201 21.03463 21.06295 21.08659 21.10529 21.11899 21.12786 21.13226 21.13272 21.12989 21.12446 21.11709 21.10835 21.09871 21.08842 21.07752 21.06583 21.05292 21.03809 21.02043 20.99965 20.97656 20.95188 20.92619 20.8999 20.87318 20.84599 20.81798 20.78858 20.75695 20.72205 20.68263 20.63734 20.58476 20.52348 20.4522 20.36982 20.27554 20.16896 20.05021 19.92001 19.77974 19.63146 19.47788 19.32231 19.16857 19.0209 18.88314 18.75183 18.62744 18.51211 18.40773 18.31585 18.23763 18.17377 18.12443 18.08927 18.0675 18.05806 18.0597 18.0711 18.091 18.11818 18.15154 18.19011 18.23301 18.27943 18.32861 18.37981 18.43223 18.48503 18.53736 18.58835 18.63727 18.68353 18.72675 18.76738 18.80579 18.84218 18.8766 18.909 18.9392 18.96694 18.99192 19.01384 19.03241 19.04745 19.05881 19.06648 19.07051 19.07099 19.06803 19.06169 19.0521 19.03946 19.02417 19.00678 18.98804 18.96886 18.95027 18.93336 18.91925 18.90897 18.90326 18.90235 18.90691 18.91762 18.9351 18.95983 18.99205 19.03177 19.07871 19.1324 19.19221 19.25738 19.32706 19.40035 19.4763 19.55392 19.63219 19.71007 19.78649 19.86037 19.93063 19.99622 20.05618 20.10973 20.15637 20.19595 20.22864 20.25487 20.27546 20.29155 20.30389 20.31306 20.31952 20.3236 20.32551 20.32537 20.32324 20.31911 20.31298 20.3048 20.29456 20.28222 20.26775 20.25115 20.23251 20.21209 20.19036 20.16805 20.14612 20.12577 20.10832 20.09525 20.08802 20.08804 20.09655 20.11443 20.14055 20.17537 20.22085 20.27859 20.34969 20.43465 20.53333 20.64495 20.76821 20.90123 21.04164 21.18657 21.33271 21.47633 21.61335 21.73942 21.85005 21.94072 22.00705 22.04508 22.05153 22.02417 21.96227 21.86688 21.74086 21.5888 21.41673 21.23103 21.02391 20.7977 20.56074 20.32109 20.08621 19.8628 19.65663 19.47239 19.31363 19.18268 19.08063 19.00733 18.96145 18.94067 18.94202 18.96219 18.99791 19.04612 19.10417 19.16987 19.24157 19.31816 19.39906 19.48413 19.57364 19.66817 19.76843 19.87513 19.98887 20.11102 20.24275 20.38475 20.53726 20.7 20.87221 21.05265 21.23957 21.4308 21.62373 21.8154 22.00255 22.18176 22.34947 22.50221 22.63663 22.74977 22.83912 22.9029 22.94023 22.95125 22.93723 22.90058 22.84477 22.77429 22.69457 22.60917 22.51344 22.40998 22.30242 22.19433 22.08913 21.98991 21.89935 21.81957 21.75213 21.69792 21.65711 21.62922 21.6132 21.60763 21.61082 21.62097 21.63626 21.65493 21.67533 21.69595 21.71546 21.7327 21.74666 21.75653 21.7616 21.76133 21.75534 21.74344 21.72557 21.70187 21.6728 21.63902 21.60131 21.56047 21.51731 21.47257 21.42695 21.38106 21.33544 21.29058 21.24689 21.20471
11.27559 11.50175 11.77391 12.08543 12.42909 12.7975 13.18332 13.57958 13.97983 14.37831 14.77013 15.1513 15.51885 15.87086 16.2064 16.52559 16.82944 17.11995 17.39572 17.65301 17.88959 18.10463 18.29845 18.47232 18.62827 18.7688 18.89675 19.01502 19.12638 19.23336 19.33802 19.44189 19.54584 19.65011 19.75436 19.85784 19.95972 20.0594 20.15641 20.25025 20.34014 20.42495 20.50314 20.57274 20.63135 20.68253 20.73133 20.77747 20.82088 20.86163 20.89989 20.93584 20.96958 21.0011 21.03012 21.05618 21.07869 21.09719 21.11139 21.12126 21.12694 21.12877 21.12722 21.12279 21.116 21.1073 21.09705 21.08543 21.07245 21.05793 21.04146 21.02245 21.00011 20.97426 20.94569 20.91512 20.88316 20.85028 20.8167 20.78244 20.74726 20.71066 20.6719 20.63003 20.58391 20.53229 20.47384 20.40725 20.33131 20.245 20.14758 20.03867 19.91843 19.78759 19.64754 19.50032 19.34861 19.19565 19.0452 18.9014 18.76797 18.6417 18.5231 18.41433 18.31727 18.23352 18.16428 18.1103 18.07179 18.04838 18.0392 18.04307 18.05863 18.08444 18.11905 18.16109 18.20922 18.26222 18.31894 18.37828 18.43921 18.50066 18.56157 18.62084 18.67737 18.73013 18.77836 18.82158 18.85967 18.89316 18.92256 18.94831 18.97075 18.99014 19.00663 19.02031 19.03123 19.0394 19.04487 19.04771 19.04805 19.04607 19.04201 19.03609 19.02844 19.01911 19.00807 18.99539 18.98125 18.96605 18.95032 18.93477 18.92022 18.90758 18.89776 18.89166 18.88997 18.89295 18.90105 18.9148 18.93469 18.96116 18.99444 19.03452 19.08115 19.13391 19.19222 19.25544 19.32282 19.39356 19.4668 19.54164 19.61712 19.69224 19.76594 19.83713 19.90469 19.9675 20.02452 20.07487 20.11799 20.15373 20.18236 20.20437 20.22069 20.23249 20.24054 20.24549 20.24782 20.2479 20.24595 20.24212 20.23647 20.22902 20.21978 20.20871 20.19583 20.1811 20.16451 20.14601 20.12565 20.10365 20.08048 20.05686 20.03376 20.0124 19.99417 19.98055 19.97308 19.97323 19.98228 20.0012 20.02888 20.0658 20.11396 20.17499 20.25003 20.33954 20.44331 20.5605 20.68974 20.8291 20.97618 21.12807 21.2814 21.4324 21.57693 21.71058 21.82875 21.9268 22.00022 22.04485 22.05716 22.03469 21.9765 21.88363 21.75906 21.60752 21.43514 21.24844 21.03963 20.81111 20.57136 20.3285 20.09013 19.86303 19.65306 19.46499 19.30246 19.16787 19.06241 18.98599 18.93729 18.91389 18.91269 18.93029 18.96338 19.00888 19.06417 19.12711 19.19613 19.27018 19.34878 19.43189 19.51986 19.61335 19.71313 19.81997 19.93445 20.05793 20.19155 20.336 20.49145 20.65758 20.83358 21.01815 21.20952 21.40545 21.60332 21.80011 21.99257 22.17722 22.35053 22.50899 22.64925 22.7683 22.86362 22.93338 22.97662 22.99349 22.98526 22.9543 22.90404 22.83888 22.76417 22.68337 22.59192 22.49243 22.38848 22.28365 22.18135 22.08473 21.99648 21.91883 21.85341 21.8012 21.76243 21.73663 21.72272 21.71924 21.72447 21.73656 21.75365 21.77394 21.79571 21.81738 21.83755 21.85497 21.86857 21.87743 21.88079 21.87807 21.8688 21.85279 21.82997 21.80056 21.76515 21.72455 21.67966 21.63144 21.58077 21.52853 21.47551 21.42241 21.36987 21.31846 21.26864 21.22084
11.2014 11.42316 11.69205 12.00121 12.34324 12.71056 13.09575 13.49171 13.89194 14.29068 14.68302 15.06502 15.43376 15.78739 16.1251 16.44706 16.75439 17.04913 17.32989 17.59301 17.83627 18.05884 18.26098 18.44393 18.60958 18.76035 18.89889 19.02795 19.15012 19.26772 19.38261 19.49608 19.6088 19.72077 19.83138 19.93962 20.04443 20.14522 20.24167 20.33344 20.41993 20.50023 20.57301 20.63659 20.68886 20.73315 20.77436 20.81261 20.84819 20.88149 20.91294 20.94293 20.97174 20.99947 21.02587 21.05037 21.07224 21.09085 21.10574 21.1167 21.12371 21.12694 21.12669 21.12332 21.1172 21.10869 21.09802 21.08532 21.07055 21.05353 21.03386 21.01105 20.98441 20.95385 20.92014 20.88401 20.8461 20.80691 20.76674 20.72566 20.68351 20.63989 20.59415 20.54544 20.49273 20.43484 20.37057 20.2987 20.21811 20.12786 20.02729 19.91606 19.79436 19.66295 19.5232 19.37714 19.22742 19.07721 18.93019 18.79036 18.66133 18.54014 18.42734 18.32507 18.23522 18.15937 18.09879 18.05426 18.02603 18.01368 18.01626 18.0325 18.06094 18.10002 18.14816 18.20379 18.2654 18.33153 18.4008 18.47186 18.54339 18.61409 18.68266 18.74778 18.80816 18.86263 18.91036 18.95103 18.98474 19.01204 19.03358 19.04999 19.06186 19.06972 19.07405 19.07523 19.07363 19.06959 19.06341 19.05544 19.04602 19.03554 19.02437 19.01285 19.00118 18.98934 18.97719 18.96466 18.95179 18.93878 18.926 18.91395 18.90327 18.89467 18.8889 18.8867 18.88871 18.89522 18.90649 18.92287 18.94476 18.97251 19.00636 19.04628 19.09202 19.1432 19.19935 19.25989 19.32419 19.39157 19.46127 19.53248 19.60432 19.67584 19.74602 19.81378 19.87799 19.93751 19.99122 20.03817 20.07774 20.10979 20.13465 20.15288 20.16548 20.17363 20.17814 20.17968 20.17874 20.1757 20.17079 20.16415 20.15585 20.1459 20.13431 20.12105 20.10614 20.08957 20.07133 20.05134 20.02962 20.00636 19.98202 19.95733 19.93329 19.91114 19.89228 19.87825 19.87062 19.87091 19.88042 19.90018 19.92911 19.96768 20.01789 20.08142 20.15943 20.25235 20.35988 20.48112 20.61468 20.75861 20.91048 21.06737 21.2259 21.38229 21.53237 21.67171 21.79567 21.89955 21.97877 22.02905 22.04673 22.02909 21.97503 21.88559 21.76385 21.6146 21.44401 21.25861 21.05065 20.82259 20.58291 20.33978 20.10078 19.87273 19.66149 19.47187 19.30753 19.17093 19.06329 18.98462 18.93363 18.90783 18.90403 18.91881 18.94884 18.99112 19.04307 19.10263 19.16831 19.23919 19.31487 19.3954 19.48123 19.57308 19.6718 19.77817 19.89273 20.01686 20.15168 20.29786 20.4555 20.62426 20.80327 20.99119 21.1862 21.38603 21.58801 21.78912 21.98606 22.17536 22.35348 22.51691 22.66231 22.78665 22.88741 22.96269 23.01151 23.03399 23.0314 23.00608 22.96137 22.9016 22.83196 22.75583 22.66873 22.57325 22.47293 22.37132 22.27184 22.17763 22.09144 22.01552 21.95159 21.9007 21.86318 21.83856 21.82573 21.8232 21.82925 21.84201 21.8596 21.88017 21.90197 21.92336 21.94287 21.95918 21.97118 21.97789 21.97851 21.9724 21.9591 21.9384 21.91023 21.8749 21.83311 21.78582 21.73402 21.67877 21.62106 21.56184 21.502 21.44233 21.38354 21.32627 21.27106 21.21837
11.15092 11.36756 11.63218 11.93776 12.27679 12.64158 13.02461 13.41872 13.81736 14.21475 14.60599 14.98716 15.35541 15.70894 16.04701 16.36989 16.67876 16.97571 17.25941 17.52626 17.77409 18.00205 18.21038 18.40025 18.57346 18.73231 18.87932 19.01707 19.148 19.27426 19.39752 19.5189 19.6389 19.75734 19.87347 19.98607 20.09396 20.19653 20.29357 20.38479 20.46972 20.54758 20.61724 20.67722 20.72564 20.76565 20.802 20.8351 20.86551 20.89385 20.92076 20.94679 20.97233 20.99757 21.02232 21.04593 21.06757 21.08652 21.10221 21.11429 21.12261 21.12721 21.12823 21.12592 21.12053 21.11229 21.10135 21.08777 21.07147 21.05224 21.02974 21.00349 20.97295 20.93809 20.89964 20.85835 20.81487 20.76973 20.72329 20.6757 20.62687 20.57649 20.524 20.46864 20.40949 20.34548 20.2755 20.19843 20.11326 20.01912 19.91543 19.80193 19.67883 19.5469 19.40755 19.26277 19.11516 18.96784 18.82437 18.68861 18.56403 18.44792 18.3409 18.24506 18.16227 18.09413 18.04187 18.00631 17.98772 17.98563 17.99902 18.02657 18.06673 18.11785 18.17821 18.2461 18.31981 18.39771 18.47817 18.55963 18.64055 18.71942 18.79472 18.86497 18.92877 18.98486 19.03235 19.07106 19.10123 19.12342 19.13836 19.14684 19.14965 19.14758 19.14138 19.13173 19.11928 19.10463 19.08837 19.07107 19.05327 19.03551 19.01828 19.00203 18.987 18.97312 18.96017 18.94798 18.93644 18.92562 18.9157 18.90703 18.90003 18.89525 18.89326 18.89465 18.90002 18.90969 18.92376 18.94238 18.96584 18.99441 19.0283 19.06746 19.11166 19.16057 19.2138 19.27089 19.3313 19.39447 19.45975 19.52644 19.59374 19.66077 19.72659 19.79013 19.85028 19.90591 19.95589 19.99922 20.03522 20.06379 20.08526 20.10024 20.10974 20.11497 20.11675 20.11576 20.11247 20.10726 20.10033 20.09183 20.08178 20.07021 20.05709 20.04239 20.02612 20.00828 19.98886 19.96778 19.94502 19.9208 19.89556 19.87007 19.84532 19.82258 19.80329 19.78899 19.7813 19.78174 19.79167 19.81209 19.84198 19.88178 19.93347 19.99871 20.07868 20.17375 20.28359 20.40728 20.5434 20.69002 20.8447 21.00454 21.16618 21.32585 21.47941 21.62243 21.75029 21.8583 21.94186 21.99667 22.01901 22.00607 21.9566 21.87163 21.75427 21.60926 21.4427 21.26103 21.05662 20.83191 20.59533 20.35497 20.11834 19.89221 19.68238 19.49364 19.32961 19.19273 19.08427 19.00426 18.95148 18.92342 18.91689 18.92851 18.95502 18.9935 19.04147 19.09699 19.15867 19.22571 19.2978 19.37511 19.45818 19.54777 19.6448 19.75008 19.86408 19.98817 20.12349 20.27064 20.42972 20.60033 20.78156 20.97204 21.16988 21.3728 21.57806 21.78265 21.98324 22.17637 22.35848 22.52609 22.67588 22.80483 22.91042 22.99074 23.04478 23.07265 23.07559 23.05586 23.01674 22.96241 22.89792 22.82653 22.74387 22.65247 22.55582 22.45744 22.36071 22.26878 22.1844 22.10987 22.04692 21.9967 21.9596 21.93516 21.92229 21.9195 21.92507 21.93716 21.95387 21.97332 21.99373 22.01343 22.03089 22.04477 22.05387 22.0572 22.05394 22.04344 22.02528 21.99926 21.96535 21.92393 21.87581 21.822 21.76361 21.70173 21.63745 21.5718 21.50574 21.44015 21.37579 21.31338 21.2535 21.19668
11.12502 11.33572 11.59497 11.89571 12.23033 12.59111 12.97044 13.36112 13.75658 14.151 14.53951 14.9182 15.28427 15.63596 15.97261 16.29454 16.603 16.90014 17.1847 17.45318 17.70344 17.93464 18.147 18.3416 18.52018 18.68492 18.83821 18.9825 19.12009 19.25296 19.38265 19.51016 19.63583 19.75941 19.88005 19.99653 20.10765 20.21276 20.31159 20.40385 20.48912 20.56671 20.63561 20.69447 20.7416 20.78002 20.8143 20.84505 20.873 20.89895 20.92365 20.94774 20.97173 20.99581 21.01981 21.0431 21.06488 21.08434 21.10088 21.11404 21.1236 21.12946 21.13167 21.13036 21.12566 21.11772 21.1066 21.09228 21.07466 21.0535 21.02847 20.99916 20.96513 20.92639 20.88365 20.83763 20.789 20.73833 20.68603 20.6323 20.57714 20.52031 20.46136 20.39962 20.33427 20.26435 20.18883 20.10673 20.0171 19.91918 19.81247 19.69676 19.57234 19.44 19.30115 19.15777 19.0124 18.86808 18.72825 18.59663 18.47653 18.36549 18.26419 18.17467 18.09878 18.03809 17.99381 17.96672 17.95705 17.96431 17.98749 18.02521 18.07587 18.13773 18.20896 18.2877 18.3721 18.46033 18.55058 18.64111 18.73016 18.81605 18.89712 18.97176 19.03849 19.09604 19.14358 19.18097 19.20852 19.22672 19.23635 19.23833 19.23363 19.22327 19.20822 19.18943 19.16781 19.14423 19.11949 19.09436 19.06959 19.04583 19.02367 19.00361 18.98587 18.9704 18.95696 18.94527 18.93515 18.92651 18.91939 18.91395 18.91046 18.90927 18.9108 18.91549 18.92389 18.93638 18.95286 18.97334 18.99795 19.02687 19.06024 19.098 19.13998 19.18591 19.23546 19.28828 19.34397 19.40205 19.46202 19.52327 19.58511 19.64676 19.70733 19.76584 19.82121 19.87234 19.91812 19.95758 19.99005 20.01541 20.03395 20.04626 20.05333 20.05642 20.05634 20.05373 20.04906 20.04265 20.0347 20.0253 20.01446 20.00216 19.98836 19.97301 19.95608 19.93757 19.91745 19.89566 19.8722 19.84731 19.82145 19.7954 19.77019 19.74708 19.72754 19.71314 19.70548 19.70611 19.71637 19.7373 19.76787 19.80852 19.86112 19.9273 20.00817 20.10409 20.21474 20.33921 20.4761 20.62348 20.77896 20.93967 21.10229 21.2631 21.41801 21.56266 21.69248 21.80284 21.8892 21.94731 21.97348 21.96498 21.92058 21.84122 21.72987 21.5911 21.43085 21.2554 21.05726 20.83885 20.60842 20.37391 20.14269 19.92139 19.7157 19.53029 19.36873 19.2334 19.12554 19.04516 18.99105 18.96082 18.95137 18.95947 18.98196 19.01606 19.05941 19.11021 19.16722 19.22972 19.29756 19.371 19.45064 19.53735 19.63207 19.73561 19.8484 19.97178 20.10687 20.25426 20.41401 20.58571 20.76839 20.96064 21.16053 21.36572 21.57346 21.7807 21.98411 22.18023 22.36553 22.53653 22.68994 22.82278 22.93256 23.01741 23.07632 23.10937 23.11773 23.10358 23.07007 23.02124 22.96198 22.89542 22.81729 22.73005 22.63714 22.542 22.448 22.35825 22.27549 22.20203 22.13963 22.08946 22.05192 22.02662 22.01254 22.00823 22.01201 22.02206 22.03647 22.05338 22.07098 22.08756 22.10158 22.11165 22.11654 22.11526 22.10696 22.09104 22.06713 22.03513 21.99513 21.94753 21.89315 21.83305 21.76838 21.70029 21.62994 21.55841 21.48674 21.41585 21.34659 21.27972 21.21589 21.15567
11.12358 11.32762 11.58048 11.87515 12.20402 12.55932 12.93344 13.31915 13.70985 14.09973 14.4839 14.8585 15.22073 15.56889 15.90236 16.2215 16.52765 16.823 17.1064 17.37444 17.62504 17.85736 18.0716 18.26878 18.45056 18.61901 18.77642 18.92511 19.06725 19.20471 19.33891 19.47076 19.60053 19.72794 19.85216 19.97204 20.08651 20.19482 20.29656 20.39139 20.47885 20.55828 20.62872 20.68892 20.73732 20.77678 20.81175 20.84292 20.87111 20.89716 20.92192 20.94607 20.97013 20.99431 21.01845 21.042 21.06421 21.08433 21.10171 21.11587 21.12651 21.13348 21.13672 21.13627 21.13219 21.12451 21.11323 21.09827 21.07947 21.0566 21.02933 20.9973 20.96017 20.918 20.87143 20.82115 20.76784 20.7121 20.65437 20.59492 20.53383 20.47093 20.40586 20.33806 20.2668 20.19123 20.11044 20.02351 19.92962 19.82808 19.71849 19.60071 19.4751 19.34248 19.20426 19.0624 18.9194 18.77818 18.64208 18.51463 18.399 18.29296 18.19726 18.1139 18.04469 17.99113 17.95441 17.93521 17.93371 17.94942 17.98134 18.02808 18.088 18.15928 18.24 18.32817 18.42181 18.51893 18.61758 18.71581 18.81175 18.90354 18.98942 19.06771 19.1369 19.19579 19.24363 19.28028 19.30604 19.32131 19.32689 19.32377 19.31309 19.29603 19.27379 19.24754 19.21843 19.18754 19.1559 19.12446 19.0941 19.06559 19.0396 19.01661 18.99686 18.98031 18.9667 18.95574 18.94715 18.94072 18.93635 18.93404 18.9339 18.93611 18.94093 18.94864 18.95976 18.97472 18.99325 19.0152 19.04054 19.06934 19.10164 19.13741 19.1765 19.21872 19.26384 19.3116 19.36172 19.41387 19.46763 19.52254 19.57802 19.6334 19.68788 19.74056 19.79045 19.83649 19.87766 19.91305 19.94205 19.96447 19.98054 19.99076 19.99611 19.99787 19.99681 19.99352 19.98844 19.98184 19.97387 19.96455 19.95387 19.94175 19.92812 19.91289 19.896 19.87741 19.85709 19.835 19.8112 19.78595 19.75976 19.73343 19.70799 19.68474 19.66515 19.65078 19.64324 19.64408 19.65462 19.67587 19.70682 19.74786 19.80079 19.86711 19.94784 20.04334 20.15333 20.27696 20.41284 20.5591 20.71339 20.8729 21.03439 21.19422 21.34838 21.49263 21.62249 21.73346 21.82111 21.88134 21.91059 21.9063 21.86739 21.79467 21.69083 21.56021 21.40846 21.24163 21.0524 20.84314 20.62184 20.3962 20.17337 19.95975 19.76086 19.58121 19.42423 19.29222 19.18632 19.10651 19.05158 19.01931 19.00683 19.01107 19.02909 19.05825 19.09638 19.14181 19.19346 19.25077 19.31369 19.38259 19.45817 19.54136 19.63312 19.73427 19.84519 19.96718 20.10134 20.24825 20.40796 20.58001 20.76342 20.95668 21.15786 21.36455 21.57398 21.78307 21.9885 22.18681 22.37449 22.54809 22.70438 22.84043 22.95379 23.04267 23.10608 23.14408 23.15773 23.14911 23.12122 23.07796 23.024 22.96235 22.88884 22.80587 22.71676 22.62491 22.53363 22.44597 22.36466 22.29199 22.22971 22.17896 22.14018 22.11305 22.09664 22.08959 22.09029 22.09695 22.10769 22.12066 22.13404 22.14612 22.15533 22.16026 22.15969 22.15259 22.13817 22.11586 22.08537 22.04681 22.00038 21.94647 21.8859 21.81972 21.74908 21.6752 21.59925 21.52238 21.44566 21.37009 21.29658 21.22592 21.15882 21.09591
