ncols         426
nrows         30
xllcorner     457632.235543
yllcorner     9971453.35152
cellsize      15
NODATA_value  -9999
27.4355 27.4226 27.3924 27.3552 27.3334 27.3473 27.3793 27.4067 27.4183 27.4067 27.3772 27.3385 27.2751 27.1735 27.0342 26.8697 26.7538 26.7816 26.8681 26.9352 26.9871 27.0204 27.0446 27.0531 27.0617 27.0742 27.1044 27.1568 27.2025 27.1916 27.1641 27.161 27.1674 27.185 27.2132 27.2564 27.2997 27.3277 27.3365 27.3274 27.2999 27.2691 27.2362 27.206 27.1739 27.1446 27.1117 27.0489 26.9957 26.9842 27.0245 27.1113 27.1933 27.1842 27.1575 27.1808 27.2459 27.3396 27.409 27.3799 27.298 27.1809 27.0163 26.7728 26.3589 25.6799 24.8309 23.9018 22.9283 21.9274 20.8987 19.8019 18.7099 17.6705 16.705 15.8556 15.1912 14.8108 14.6371 14.6026 14.6994 14.915 15.2527 15.7024 16.2534 16.8846 17.5701 18.2867 18.9491 19.4471 19.8608 20.2455 20.6035 20.948 21.3222 21.7771 22.254 22.7023 23.107 23.46 23.7368 23.9025 23.9945 24.0406 24.0551 24.0396 24.0421 24.1307 24.2467 24.3647 24.4824 24.6009 24.6972 24.7488 24.7819 24.8119 24.8424 24.8716 24.9176 25.0238 25.1346 25.21 25.2329 25.1932 25.0837 24.906 24.6696 24.4082 24.124 23.8317 23.4624 22.9234 22.3406 21.8165 21.3698 20.9916 20.593 20.0349 19.4686 18.9994 18.6359 18.3485 18.031 17.5131 16.9447 16.4206 15.9419 15.473 14.9226 14.1693 13.3197 12.4447 11.5664 10.6771 9.7531 8.7555 7.7218 6.6848 5.6507 4.6457 3.7922 3.2705 2.8964 2.5461 2.1906 1.8261 1.4939 1.2525 1.051 0.8462 0.6493 0.4603 0.2902 0.16 0.0643 -0.0136 -0.0639 -0.1 -0.1335 -0.1705 -0.2076 -0.2349 -0.247 -0.254 -0.2653 -0.3022 -0.3486 -0.3841 -0.4048 -0.4118 -0.4273 -0.4754 -0.5272 -0.56 -0.568 -0.547 -0.5248 -0.5344 -0.5392 -0.5175 -0.4632 -0.3654 -0.2293 -0.0605 0.1499 0.3897 0.6724 1.0152 1.5181 2.3168 3.2751 4.2863 5.3423 6.4423 7.636 8.9694 10.3819 11.8196 13.2597 14.6812 16.035 17.2739 18.4342 19.5462 20.6085 21.5937 22.3675 22.7603 22.9514 23.0696 23.1565 23.2225 23.2553 23.2453 23.2206 23.195 23.1853 23.2041 23.2669 23.4069 23.5931 23.8007 24.0234 24.2582 24.4705 24.6304 24.7614 24.8783 24.9921 25.1108 25.2414 25.4112 25.5918 25.7718 25.9442 26.0987 26.1969 26.189 26.1247 26.0496 25.9697 25.8776 25.7704 25.6219 25.4544 25.2882 25.1236 24.9624 24.8537 24.8469 24.884 24.9255 24.9624 24.9884 25.0179 25.0581 25.1026 25.1348 25.1574 25.1674 25.1492 25.0597 24.9461 24.8288 24.7159 24.6089 24.4965 24.3516 24.1979 24.0385 23.872 23.6995 23.5326 23.4016 23.2756 23.141 22.9927 22.8496 22.7788 22.8843 23.0679 23.2632 23.4475 23.6209 23.8059 24.0295 24.2499 24.43 24.5526 24.5909 24.5083 24.253 23.8612 23.3671 22.7822 22.0964 21.3001 20.3693 19.3222 18.187 16.9635 15.6569 14.2839 12.869 11.399 9.8729 8.3148 6.778 5.4328 4.5237 3.8202 3.1533 2.4861 1.8311 1.2668 0.9255 0.6928 0.4803 0.2775 0.0932 -0.0582 -0.1753 -0.2494 -0.2895 -0.3025 -0.2975 -0.2808 -0.2842 -0.2817 -0.2638 -0.2359 -0.2065 -0.1741 -0.1552 -0.1477 -0.1281 -0.106 -0.0849 -9999 -9999 -9999 -9999 -9999 -9999 -9999 -9999 -9999 -9999 -9999 -9999 -9999 -9999 -9999 -9999 -9999 -9999 -9999 -9999 -9999 -9999 -9999 -9999 -9999 -9999 -9999 -9999 -9999 -9999 -9999 -9999 -9999 -9999 -9999 -9999 -9999 -9999 -9999 -9999 -9999 -9999 -9999 -9999 -9999 -9999 -9999 -9999 -9999 -9999 -9999 -9999 -9999 -9999 -9999 -9999 -9999 -9999 -9999 -9999 -9999 -9999 -9999 -9999 -9999 -9999 -9999 -9999
27.3768 27.3913 27.3885 27.3809 27.3875 27.4163 27.4615 27.5083 27.5475 27.567 27.5678 27.5458 27.5017 27.4265 27.3388 27.2375 27.1636 27.1413 27.1521 27.1611 27.1687 27.1649 27.1474 27.1159 27.0814 27.0489 27.0351 27.0356 27.0433 27.0472 27.0565 27.0789 27.1121 27.1588 27.2161 27.2803 27.3446 27.4079 27.4534 27.4906 27.5187 27.5391 27.5571 27.5698 27.587 27.5877 27.568 27.5211 27.4676 27.4285 27.4202 27.4313 27.4426 27.4318 27.418 27.4202 27.444 27.4756 27.4857 27.442 27.3444 27.1897 26.9687 26.6328 26.1311 25.4342 24.5693 23.5895 22.5657 21.5119 20.4467 19.3767 18.3276 17.3459 16.4495 15.6809 15.1035 14.7514 14.6017 14.6097 14.7561 15.0183 15.3928 15.8673 16.4327 17.0569 17.7317 18.4068 19.0324 19.5642 20.0222 20.4353 20.8311 21.2198 21.6267 22.0548 22.4912 22.9084 23.2982 23.6259 23.8844 24.0526 24.1458 24.191 24.2094 24.2065 24.2223 24.2781 24.363 24.455 24.5599 24.656 24.745 24.8118 24.8706 24.9178 24.9712 25.026 25.0971 25.1857 25.2787 25.3378 25.357 25.3125 25.194 25.0104 24.7677 24.4826 24.1743 23.8375 23.4535 23.0123 22.5566 22.1293 21.7548 21.4103 21.058 20.6629 20.271 19.9303 19.6499 19.3914 19.0952 18.7109 18.2669 17.8186 17.3722 16.8868 16.3029 15.5753 14.7401 13.8495 12.9328 11.9925 11.0205 9.9989 8.9541 7.9095 6.8926 5.9403 5.1225 4.4782 3.9659 3.512 3.0873 2.6774 2.3026 1.9767 1.6793 1.3911 1.1176 0.8565 0.6346 0.4674 0.3421 0.2423 0.165 0.098 0.0366 -0.0099 -0.0461 -0.0806 -0.1074 -0.134 -0.1733 -0.2177 -0.2621 -0.3099 -0.3437 -0.3751 -0.4163 -0.4661 -0.5149 -0.5598 -0.5769 -0.5758 -0.5775 -0.5883 -0.5945 -0.5873 -0.5497 -0.4808 -0.3835 -0.2565 -0.0954 0.1013 0.346 0.6763 1.1449 1.7861 2.5701 3.4395 4.3792 5.4006 6.531 7.7832 9.1361 10.5365 11.951 13.3484 14.6951 15.9633 17.1671 18.3045 19.3786 20.3396 21.1134 21.6446 21.9955 22.2395 22.4306 22.5797 22.6954 22.7686 22.8151 22.8559 22.9071 22.9843 23.1026 23.2686 23.4674 23.6861 23.9115 24.1391 24.3436 24.5139 24.6515 24.7725 24.8798 25.0016 25.1387 25.3009 25.4787 25.6641 25.8359 25.9862 26.088 26.1223 26.1012 26.0564 25.9957 25.916 25.8111 25.6804 25.5259 25.3682 25.2137 25.0697 24.9642 24.9093 24.8902 24.8875 24.8849 24.8805 24.8782 24.879 24.8814 24.8761 24.8662 24.8487 24.8022 24.7273 24.6338 24.5394 24.4488 24.3683 24.2822 24.1889 24.0886 23.9904 23.8867 23.7842 23.6796 23.5802 23.4833 23.3906 23.2933 23.2192 23.2063 23.2805 23.419 23.5863 23.7565 23.9288 24.1101 24.3008 24.4846 24.633 24.7161 24.7013 24.5565 24.2519 23.8008 23.233 22.5576 21.7766 20.8774 19.85 18.7104 17.4807 16.1794 14.8092 13.3846 11.9111 10.4068 8.8807 7.3803 5.9621 4.7451 3.7974 3.055 2.4156 1.8393 1.3167 0.8893 0.5829 0.3664 0.1912 0.0471 -0.0764 -0.1771 -0.253 -0.3006 -0.3247 -0.3184 -0.3064 -0.2928 -0.284 -0.2725 -0.2586 -0.2197 -0.1924 -0.168 -0.1487 -0.1376 -0.1187 -0.0904 -9999 -9999 -9999 -9999 -9999 -9999 -9999 -9999 -9999 -9999 -9999 -9999 -9999 -9999 -9999 -9999 -9999 -9999 -9999 -9999 -9999 -9999 -9999 -9999 -9999 -9999 -9999 -9999 -9999 -9999 -9999 -9999 -9999 -9999 -9999 -9999 -9999 -9999 -9999 -9999 -9999 -9999 -9999 -9999 -9999 -9999 -9999 -9999 -9999 -9999 -9999 -9999 -9999 -9999 -9999 -9999 -9999 -9999 -9999 -9999 -9999 -9999 -9999 -9999 -9999 -9999 -9999 -9999 -9999
27.3297 27.3663 27.3842 27.3973 27.4246 27.4745 27.5447 27.6193 27.688 27.7428 27.7729 27.7749 27.7517 27.7119 27.665 27.612 27.555 27.5024 27.45 27.4003 27.3528 27.3059 27.2442 27.17 27.0855 27.0004 26.9283 26.8806 26.8609 26.8754 26.9142 26.9718 27.041 27.1171 27.202 27.2926 27.3857 27.4757 27.5557 27.6331 27.6992 27.7655 27.8336 27.8977 27.9497 27.984 27.9773 27.9307 27.8538 27.773 27.7066 27.645 27.6051 27.5752 27.5549 27.5381 27.533 27.5254 27.4926 27.4245 27.3027 27.1181 26.8506 26.4575 25.9013 25.1597 24.2466 23.2243 22.1415 21.0392 19.9487 18.8978 17.8994 16.9655 16.1231 15.4214 14.9038 14.6075 14.5059 14.5615 14.7508 15.0525 15.4532 15.9532 16.5242 17.1552 17.8175 18.4771 19.0895 19.6376 20.1202 20.5657 20.9951 21.4237 21.8439 22.2642 22.6678 23.0623 23.4315 23.7483 23.9908 24.1559 24.2461 24.2856 24.3022 24.3019 24.3143 24.3514 24.408 24.4778 24.5595 24.6395 24.7195 24.7998 24.8795 24.9514 25.0299 25.1078 25.1899 25.2808 25.362 25.4182 25.433 25.3815 25.2529 25.0481 24.7755 24.4562 24.1014 23.7252 23.3395 22.9604 22.597 22.2616 21.9519 21.664 21.3853 21.1168 20.8614 20.6504 20.4582 20.271 20.0405 19.7524 19.4082 19.045 18.6537 18.2031 17.6285 16.9102 16.0662 15.1637 14.2261 13.2641 12.2666 11.2379 10.1839 9.1547 8.1715 7.2511 6.4345 5.7332 5.1216 4.583 4.0903 3.6256 3.1942 2.8013 2.4211 2.0468 1.6827 1.3397 1.0557 0.8506 0.708 0.5894 0.4817 0.3764 0.2895 0.2279 0.1882 0.1468 0.1026 0.0434 -0.0167 -0.075 -0.1264 -0.187 -0.2401 -0.3006 -0.3626 -0.4245 -0.4815 -0.5306 -0.5559 -0.5746 -0.5898 -0.6073 -0.6251 -0.6257 -0.6025 -0.5561 -0.4865 -0.3937 -0.2737 -0.1156 0.0953 0.393 0.7942 1.3172 1.9516 2.6734 3.4765 4.3873 5.4236 6.6024 7.8973 9.2612 10.6445 12.0198 13.348 14.614 15.8278 16.9771 18.0616 19.0423 19.8501 20.4684 20.9352 21.2913 21.5909 21.8496 22.0549 22.2075 22.3283 22.4335 22.5493 22.6916 22.8621 23.0577 23.2821 23.517 23.7531 23.9878 24.1967 24.3685 24.5107 24.6301 24.7369 24.8558 24.9933 25.1512 25.3337 25.5193 25.6984 25.8564 25.971 26.0332 26.0538 26.0332 25.996 25.9336 25.8458 25.7339 25.5959 25.4499 25.3051 25.1645 25.0542 24.9745 24.9164 24.8699 24.8275 24.7857 24.7438 24.7082 24.6704 24.6269 24.5792 24.5271 24.4586 24.3875 24.3118 24.238 24.1696 24.1131 24.058 24.0153 23.9792 23.9482 23.9187 23.8823 23.8389 23.783 23.7206 23.6682 23.6204 23.5918 23.6105 23.6739 23.7801 23.9179 24.0667 24.2194 24.3803 24.5421 24.6886 24.8053 24.8589 24.803 24.6039 24.2335 23.7023 23.0495 22.2962 21.4316 20.4451 19.3253 18.0904 16.7727 15.4002 13.9858 12.5245 11.0231 9.5017 7.9873 6.5271 5.1902 4.0456 3.1293 2.4095 1.828 1.3335 0.913 0.5753 0.3197 0.1269 -0.0066 -0.1089 -0.1885 -0.2501 -0.2954 -0.3322 -0.3411 -0.3267 -0.3035 -0.2906 -0.2734 -0.258 -0.2388 -0.2065 -0.1739 -0.1525 -0.1327 -0.114 -0.1032 -0.081 -9999 -9999 -9999 -9999 -9999 -9999 -9999 -9999 -9999 -9999 -9999 -9999 -9999 -9999 -9999 -9999 -9999 -9999 -9999 -9999 -9999 -9999 -9999 -9999 -9999 -9999 -9999 -9999 -9999 -9999 -9999 -9999 -9999 -9999 -9999 -9999 -9999 -9999 -9999 -9999 -9999 -9999 -9999 -9999 -9999 -9999 -9999 -9999 -9999 -9999 -9999 -9999 -9999 -9999 -9999 -9999 -9999 -9999 -9999 -9999 -9999 -9999 -9999 -9999 -9999 -9999 -9999 -9999 -9999
27.2917 27.3437 27.374 27.3998 27.4434 27.5157 27.6129 27.7216 27.823 27.9163 27.9787 27.9976 27.9903 27.9791 27.9693 27.9636 27.927 27.8372 27.7211 27.6129 27.5153 27.4288 27.3323 27.2103 27.0711 26.9298 26.798 26.6964 26.6526 26.6811 26.7594 26.8566 26.9625 27.0715 27.1783 27.2961 27.4126 27.5336 27.6466 27.7499 27.8512 27.9533 28.0553 28.162 28.2544 28.3242 28.3336 28.2705 28.1582 28.0249 27.8935 27.7797 27.6895 27.6365 27.6047 27.5696 27.5346 27.4921 27.4236 27.3264 27.1858 26.9823 26.693 26.2845 25.7008 24.8923 23.9141 22.8256 21.677 20.5225 19.4104 18.3896 17.4419 16.5611 15.7641 15.0949 14.6227 14.3896 14.3614 14.4756 14.7065 15.0324 15.4545 15.9695 16.5527 17.1889 17.8557 18.516 19.1277 19.6751 20.1628 20.6269 21.0912 21.5508 21.9882 22.3987 22.7763 23.1468 23.5064 23.8223 24.0655 24.2184 24.2942 24.3177 24.3226 24.32 24.3228 24.3459 24.381 24.4272 24.4826 24.5512 24.6251 24.7168 24.8144 24.915 25.0134 25.1163 25.2124 25.3083 25.3885 25.4486 25.4599 25.4127 25.2779 25.0417 24.7231 24.3574 23.9448 23.5237 23.1311 22.8034 22.5239 22.2703 22.0256 21.7954 21.5916 21.4308 21.3083 21.2114 21.1217 21.0228 20.8785 20.6662 20.404 20.1177 19.8069 19.43 18.9036 18.174 17.3013 16.3703 15.4254 14.4687 13.4791 12.4422 11.3893 10.3668 9.4124 8.5317 7.7239 6.9886 6.3196 5.714 5.1627 4.6492 4.172 3.7239 3.2829 2.8332 2.367 1.9152 1.5556 1.3291 1.1879 1.0628 0.9173 0.752 0.6245 0.5516 0.5127 0.4718 0.4083 0.3076 0.212 0.1356 0.0691 -0.0065 -0.0854 -0.1778 -0.269 -0.3539 -0.4256 -0.4864 -0.5195 -0.544 -0.567 -0.5956 -0.6266 -0.6387 -0.6275 -0.5869 -0.5333 -0.4736 -0.3938 -0.2757 -0.1044 0.1434 0.4727 0.8915 1.3999 1.9801 2.637 3.3982 4.3151 5.426 6.6827 8.0137 9.3649 10.7053 12.003 13.2425 14.4278 15.5813 16.6893 17.7119 18.5779 19.2515 19.7775 20.2346 20.6497 21.027 21.3404 21.5704 21.7477 21.9199 22.1032 22.3106 22.5371 22.7742 23.0215 23.287 23.5494 23.8005 24.0239 24.1982 24.3352 24.452 24.5541 24.665 24.7967 24.9561 25.1417 25.3386 25.5314 25.7079 25.8439 25.9287 25.9704 25.9742 25.9636 25.9288 25.8664 25.773 25.6591 25.5238 25.3844 25.2501 25.1322 25.0344 24.9547 24.87 24.7846 24.6981 24.6162 24.5422 24.4695 24.3872 24.3069 24.2107 24.1223 24.0459 23.9849 23.9316 23.8879 23.8468 23.8284 23.832 23.8551 23.894 23.94 23.9759 23.9949 23.9807 23.9498 23.9299 23.9219 23.9365 23.9752 24.0333 24.1139 24.2214 24.3384 24.4706 24.6035 24.7299 24.8405 24.9255 24.9531 24.886 24.6467 24.1869 23.5475 22.797 21.9691 21.0501 19.9973 18.778 17.4353 16.0339 14.6078 13.1686 11.6915 10.1743 8.6439 7.1426 5.7123 4.4109 3.3187 2.4744 1.8354 1.3316 0.9202 0.5827 0.3141 0.1118 -0.0377 -0.1399 -0.2072 -0.2504 -0.2811 -0.3055 -0.3242 -0.3234 -0.303 -0.2799 -0.2596 -0.2453 -0.2319 -0.215 -0.1843 -0.1611 -0.139 -0.1218 -0.1072 -0.0977 -9999 -9999 -9999 -9999 -9999 -9999 -9999 -9999 -9999 -9999 -9999 -9999 -9999 -9999 -9999 -9999 -9999 -9999 -9999 -9999 -9999 -9999 -9999 -9999 -9999 -9999 -9999 -9999 -9999 -9999 -9999 -9999 -9999 -9999 -9999 -9999 -9999 -9999 -9999 -9999 -9999 -9999 -9999 -9999 -9999 -9999 -9999 -9999 -9999 -9999 -9999 -9999 -9999 -9999 -9999 -9999 -9999 -9999 -9999 -9999 -9999 -9999 -9999 -9999 -9999 -9999 -9999 -9999 -9999 -9999
27.2711 27.3276 27.3629 27.3882 27.4344 27.5343 27.6633 27.7977 27.9366 28.0715 28.1715 28.1884 28.1819 28.1852 28.2156 28.2629 28.2664 28.1178 27.9278 27.7625 27.6278 27.5204 27.4012 27.2247 27.0345 26.844 26.6631 26.5003 26.4123 26.4728 26.6099 26.749 26.8838 27.0136 27.1528 27.2951 27.4352 27.579 27.7135 27.8398 27.9695 28.0984 28.2322 28.3667 28.4982 28.6113 28.6551 28.552 28.3782 28.191 28.0069 27.8305 27.683 27.6147 27.576 27.526 27.4667 27.3858 27.2909 27.1687 27.0068 26.7872 26.5002 26.1055 25.5304 24.6404 23.5693 22.4082 21.2012 19.9902 18.8442 17.8681 16.9933 16.1686 15.403 14.7291 14.26 14.1267 14.2006 14.3822 14.6475 14.9828 15.4088 15.933 16.5313 17.1741 17.8436 18.513 19.1437 19.6618 20.132 20.6014 21.0847 21.5851 22.0594 22.4318 22.7816 23.1356 23.4926 23.8322 24.0998 24.2212 24.2671 24.2787 24.2715 24.2626 24.2534 24.2572 24.2803 24.3045 24.3388 24.3883 24.4559 24.562 24.6827 24.8045 24.9314 25.051 25.1653 25.2703 25.3553 25.4121 25.435 25.4044 25.2751 24.993 24.6225 24.1972 23.7401 23.2597 22.8325 22.5723 22.3859 22.2045 22.0196 21.8335 21.6867 21.6317 21.6272 21.6393 21.6506 21.6526 21.604 21.4404 21.2306 21.0138 20.7906 20.5385 20.1178 19.328 18.381 17.4214 16.4855 15.5714 14.6264 13.5672 12.4989 11.4914 10.5747 9.7449 8.9768 8.2138 7.5008 6.8594 6.2742 5.7248 5.216 4.7432 4.2682 3.7572 3.2004 2.6105 2.1241 1.9356 1.8382 1.7067 1.5111 1.2624 1.0519 0.9969 0.9764 0.9304 0.83 0.6728 0.5171 0.4337 0.353 0.2535 0.1357 -0.0022 -0.1317 -0.2449 -0.3389 -0.4134 -0.4572 -0.4826 -0.5084 -0.5628 -0.6125 -0.6367 -0.6271 -0.5851 -0.5369 -0.5146 -0.4786 -0.3985 -0.2674 -0.0707 0.1926 0.5229 0.9161 1.3677 1.8703 2.4469 3.2009 4.2772 5.5192 6.8078 8.1112 9.4114 10.673 11.8481 12.9843 14.1082 15.2345 16.3304 17.2915 17.9731 18.5242 19.0466 19.5762 20.102 20.5531 20.8444 21.0655 21.2927 21.5461 21.8335 22.1297 22.4099 22.6916 22.9851 23.2824 23.5756 23.8263 24.0018 24.1291 24.2334 24.3259 24.426 24.5487 24.7163 24.9099 25.1131 25.3229 25.5301 25.6987 25.7972 25.8533 25.8861 25.9058 25.9063 25.8771 25.8066 25.7091 25.5893 25.4572 25.3194 25.1908 25.0873 24.9919 24.8856 24.766 24.6282 24.4988 24.3912 24.2924 24.1787 24.0463 23.9017 23.7839 23.7124 23.6697 23.6325 23.6001 23.5734 23.5806 23.6331 23.7188 23.822 23.9402 24.057 24.1463 24.158 24.1429 24.1492 24.1812 24.2322 24.2945 24.3391 24.3869 24.4616 24.5568 24.6618 24.7616 24.8383 24.9025 24.9498 24.966 24.9197 24.6744 24.0685 23.2794 22.4226 21.5305 20.5975 19.5211 18.1702 16.7001 15.2184 13.7584 12.3212 10.8718 9.3411 7.8059 6.324 4.9256 3.6337 2.5589 1.8324 1.3196 0.9116 0.5815 0.3146 0.1057 -0.0524 -0.1655 -0.2355 -0.2734 -0.285 -0.287 -0.3039 -0.3168 -0.3097 -0.2834 -0.2573 -0.2266 -0.2186 -0.2085 -0.1918 -0.1646 -0.1396 -0.1163 -0.1026 -0.0924 -9999 -9999 -9999 -9999 -9999 -9999 -9999 -9999 -9999 -9999 -9999 -9999 -9999 -9999 -9999 -9999 -9999 -9999 -9999 -9999 -9999 -9999 -9999 -9999 -9999 -9999 -9999 -9999 -9999 -9999 -9999 -9999 -9999 -9999 -9999 -9999 -9999 -9999 -9999 -9999 -9999 -9999 -9999 -9999 -9999 -9999 -9999 -9999 -9999 -9999 -9999 -9999 -9999 -9999 -9999 -9999 -9999 -9999 -9999 -9999 -9999 -9999 -9999 -9999 -9999 -9999 -9999 -9999 -9999 -9999 -9999
27.2692 27.3289 27.3671 27.3873 27.4016 27.5494 27.6984 27.8494 28.0081 28.1721 28.3463 28.3084 28.2911 28.2975 28.345 28.4376 28.5744 28.2711 28.02 27.8164 27.6571 27.5392 27.4521 27.2014 26.9729 26.755 26.5505 26.3465 26.1391 26.3229 26.4999 26.6644 26.8258 26.9727 27.1118 27.2885 27.4553 27.6151 27.7638 27.9085 28.0475 28.1999 28.3528 28.5043 28.6545 28.8021 28.9498 28.7307 28.51 28.2868 28.0622 27.8345 27.601 27.5619 27.5111 27.4385 27.3494 27.2378 27.0994 26.9625 26.7785 26.5328 26.2284 25.8601 25.4117 24.3365 23.1919 21.9925 20.7508 19.4944 18.2329 17.4085 16.6094 15.8404 15.1149 14.445 13.8378 13.9335 14.0935 14.3182 14.603 14.9441 15.331 15.8842 16.4819 17.1111 17.7671 18.4433 19.1389 19.5584 20.0005 20.4653 20.9578 21.482 22.0483 22.3295 22.65 22.9994 23.3635 23.7269 24.0893 24.1221 24.1464 24.156 24.1498 24.1328 24.1028 24.1069 24.1136 24.1217 24.136 24.1703 24.2166 24.3506 24.496 24.645 24.7944 24.9374 25.0618 25.1819 25.2734 25.3313 25.3515 25.3316 25.2642 24.897 24.4845 24.0333 23.545 23.0159 22.4563 22.3697 22.2576 22.1314 21.9932 21.8431 21.6914 21.7778 21.8661 21.9623 22.0534 22.1437 22.2311 22.0526 21.8726 21.7029 21.5434 21.3974 21.2757 20.2362 19.2305 18.2669 17.3504 16.4907 15.7019 14.5376 13.465 12.4866 11.6117 10.8396 10.1856 9.3603 8.6408 8.002 7.418 6.8667 6.3235 5.8789 5.3983 4.8692 4.2656 3.5711 2.7715 2.8176 2.748 2.5851 2.3342 1.9932 1.5792 1.6371 1.6276 1.557 1.4195 1.2026 0.9135 0.8671 0.7613 0.6087 0.4304 0.2398 0.0534 -0.095 -0.217 -0.3165 -0.3804 -0.4116 -0.4128 -0.521 -0.5905 -0.6271 -0.6267 -0.5815 -0.4959 -0.5414 -0.5427 -0.4992 -0.405 -0.2531 -0.0412 0.209 0.5106 0.8501 1.2286 1.6418 2.0812 3.2631 4.4597 5.6695 6.889 8.1193 9.3627 10.4037 11.4615 12.5423 13.6534 14.8004 15.9886 16.5228 17.0906 17.702 18.3437 19.0135 19.7055 19.9625 20.2354 20.5381 20.8703 21.2355 21.6362 21.9411 22.2685 22.6107 22.9545 23.2898 23.6053 23.7531 23.8747 23.976 24.0639 24.1504 24.2445 24.4326 24.6321 24.8445 25.0654 25.2984 25.5378 25.6171 25.6949 25.7623 25.8215 25.8592 25.8765 25.825 25.7444 25.6445 25.5274 25.3889 25.2352 25.1498 25.0431 24.9166 24.7707 24.5954 24.3846 24.2835 24.1535 23.9908 23.8207 23.6363 23.4421 23.4063 23.3733 23.3432 23.3239 23.3148 23.3133 23.4362 23.5743 23.7277 23.901 24.0867 24.292 24.2725 24.2756 24.31 24.3692 24.452 24.5666 24.5619 24.585 24.6333 24.6974 24.7675 24.8406 24.8532 24.8577 24.8457 24.816 24.7641 24.679 23.7582 22.8218 21.8639 20.9026 19.9473 19.005 17.3917 15.8157 14.2793 12.7977 11.3849 10.0447 8.4588 6.9542 5.5297 4.1892 2.9379 1.7653 1.2912 0.8965 0.5695 0.3115 0.1044 -0.0525 -0.178 -0.2588 -0.3032 -0.3141 -0.302 -0.2645 -0.2944 -0.3058 -0.2957 -0.2643 -0.2314 -0.1841 -0.188 -0.1873 -0.1718 -0.1453 -0.1205 -0.089 -0.0821 -0.0771 -9999 -9999 -9999 -9999 -9999 -9999 -9999 -9999 -9999 -9999 -9999 -9999 -9999 -9999 -9999 -9999 -9999 -9999 -9999 -9999 -9999 -9999 -9999 -9999 -9999 -9999 -9999 -9999 -9999 -9999 -9999 -9999 -9999 -9999 -9999 -9999 -9999 -9999 -9999 -9999 -9999 -9999 -9999 -9999 -9999 -9999 -9999 -9999 -9999 -9999 -9999 -9999 -9999 -9999 -9999 -9999 -9999 -9999 -9999 -9999 -9999 -9999 -9999 -9999 -9999 -9999 -9999 -9999 -9999 -9999 -9999
27.2888 27.3503 27.3911 27.4256 27.4784 27.5881 27.7256 27.8734 28.0232 28.167 28.2735 28.2978 28.2942 28.3001 28.3273 28.3699 28.3581 28.1856 27.9638 27.7604 27.5869 27.4409 27.2926 27.0938 26.8801 26.6747 26.4818 26.3136 26.2303 26.3066 26.4606 26.6271 26.7908 26.9506 27.1164 27.2871 27.4687 27.6399 27.8029 27.9592 28.1057 28.2606 28.4141 28.568 28.7101 28.8267 28.8599 28.738 28.5356 28.31 28.079 27.8485 27.6504 27.5254 27.4254 27.3227 27.202 27.0628 26.8989 26.7123 26.4948 26.2231 25.8794 25.4393 24.8032 23.8751 22.7607 21.5686 20.3446 19.1325 18.0143 17.1051 16.3194 15.6033 14.9506 14.3881 14.0074 13.9531 14.0889 14.3142 14.6009 14.9446 15.3562 15.8539 16.4157 17.0112 17.6221 18.2439 18.8243 19.3022 19.7497 20.2067 20.6834 21.1754 21.6415 22.0169 22.3614 22.7246 23.0902 23.4403 23.7171 23.8577 23.9138 23.9439 23.9509 23.937 23.9207 23.9064 23.8877 23.877 23.8756 23.9057 23.9773 24.1013 24.2616 24.4352 24.6093 24.7814 24.9323 25.06 25.1503 25.2004 25.206 25.1528 25.0042 24.7098 24.3118 23.8695 23.398 22.9173 22.5153 22.3081 22.183 22.0805 21.9805 21.8922 21.8582 21.9325 22.0548 22.1987 22.334 22.4529 22.511 22.4481 22.319 22.1756 22.0141 21.8125 21.4392 20.7009 19.7939 18.8795 17.9841 17.1233 16.241 15.2537 14.2522 13.3304 12.495 11.749 11.0601 10.3659 9.7092 9.1236 8.5844 8.0802 7.5978 7.1478 6.6818 6.1771 5.6089 4.9918 4.4479 4.1742 3.9772 3.7242 3.408 3.0492 2.7361 2.5893 2.4972 2.3718 2.1977 1.9671 1.7161 1.5161 1.3126 1.0709 0.8122 0.551 0.3047 0.0991 -0.065 -0.1987 -0.2911 -0.3586 -0.4194 -0.5012 -0.5744 -0.6195 -0.6326 -0.6094 -0.5859 -0.5995 -0.6057 -0.5774 -0.5128 -0.3998 -0.243 -0.0519 0.182 0.4513 0.7596 1.1337 1.6792 2.5365 3.5528 4.6176 5.6994 6.7918 7.865 8.8717 9.863 10.871 11.9081 12.9752 13.9701 14.7496 15.4551 16.1814 16.9298 17.6839 18.3526 18.8422 19.2486 19.6466 20.0614 20.4948 20.9314 21.3427 21.7503 22.1548 22.5499 22.9196 23.2229 23.4328 23.5759 23.6792 23.7633 23.8538 23.9664 24.1285 24.3177 24.5255 24.7492 24.9823 25.1954 25.355 25.4859 25.6002 25.7038 25.7816 25.823 25.8174 25.7683 25.6931 25.5969 25.4747 25.3503 25.2349 25.1156 24.9729 24.809 24.6176 24.421 24.234 24.055 23.8494 23.6362 23.4253 23.2556 23.156 23.1075 23.0769 23.069 23.0858 23.1394 23.2596 23.4224 23.6094 23.8135 24.0166 24.1853 24.2738 24.3302 24.3975 24.4766 24.564 24.6392 24.6733 24.6952 24.7219 24.7534 24.7769 24.7811 24.7485 24.6825 24.5917 24.4615 24.2527 23.8496 23.0782 22.111 21.0898 20.0386 18.9535 17.7499 16.2912 14.7292 13.1891 11.6995 10.2742 8.8764 7.4471 6.0615 4.7545 3.5439 2.447 1.5476 0.9744 0.6015 0.3184 0.103 -0.0627 -0.1801 -0.2707 -0.3236 -0.3479 -0.3457 -0.3292 -0.3046 -0.3026 -0.2992 -0.2826 -0.2536 -0.2232 -0.1922 -0.1773 -0.1722 -0.158 -0.1341 -0.1106 -0.0872 -0.0744 -9999 -9999 -9999 -9999 -9999 -9999 -9999 -9999 -9999 -9999 -9999 -9999 -9999 -9999 -9999 -9999 -9999 -9999 -9999 -9999 -9999 -9999 -9999 -9999 -9999 -9999 -9999 -9999 -9999 -9999 -9999 -9999 -9999 -9999 -9999 -9999 -9999 -9999 -9999 -9999 -9999 -9999 -9999 -9999 -9999 -9999 -9999 -9999 -9999 -9999 -9999 -9999 -9999 -9999 -9999 -9999 -9999 -9999 -9999 -9999 -9999 -9999 -9999 -9999 -9999 -9999 -9999 -9999 -9999 -9999 -9999 -9999
27.3266 27.385 27.4271 27.4679 27.5284 27.6205 27.7386 27.8653 27.9928 28.1033 28.1789 28.2069 28.2058 28.1946 28.1911 28.1742 28.1114 27.9709 27.7881 27.6008 27.4308 27.2716 27.1156 26.9415 26.7619 26.5913 26.4404 26.3294 26.2919 26.3437 26.4633 26.6172 26.7809 26.951 27.1216 27.2953 27.4708 27.6517 27.8207 27.9811 28.1343 28.2851 28.431 28.5642 28.686 28.7571 28.7563 28.6564 28.4817 28.2708 28.051 27.8276 27.6309 27.4674 27.3249 27.1804 27.0214 26.8497 26.6543 26.4348 26.1804 25.8655 25.4811 24.9679 24.2722 23.3676 22.3036 21.1446 19.9613 18.8154 17.7687 16.8658 16.1022 15.4387 14.8758 14.4277 14.1467 14.0728 14.1656 14.3607 14.6407 14.976 15.3746 15.8378 16.3471 16.8824 17.4399 17.9852 18.4993 18.9664 19.4044 19.8384 20.2922 20.7429 21.1716 21.5666 21.9412 22.3169 22.7006 23.0375 23.3082 23.4869 23.5856 23.641 23.6772 23.6855 23.6738 23.6448 23.6043 23.566 23.5534 23.5788 23.6616 23.7942 23.9749 24.173 24.3862 24.5884 24.7689 24.9058 24.9958 25.0322 25.0164 24.9308 24.7608 24.4858 24.1259 23.7136 23.2814 22.8626 22.5209 22.2889 22.1457 22.0449 21.9775 21.9406 21.9608 22.0526 22.1957 22.3589 22.5236 22.6553 22.7204 22.7016 22.6075 22.4658 22.2731 21.9978 21.5614 20.9228 20.1375 19.2878 18.4309 17.5724 16.6971 15.7959 14.8961 14.0424 13.2526 12.5344 11.8804 11.2742 10.7179 10.2201 9.7594 9.3306 8.9177 8.5064 8.0878 7.6416 7.1598 6.6576 6.1916 5.7964 5.4407 5.0714 4.6781 4.2921 3.9609 3.7185 3.5313 3.3516 3.1359 2.8883 2.61 2.3158 1.9945 1.643 1.2738 0.9176 0.596 0.333 0.1226 -0.0486 -0.1806 -0.2874 -0.3842 -0.4731 -0.547 -0.6024 -0.6286 -0.6321 -0.6361 -0.6477 -0.6532 -0.6374 -0.5907 -0.5089 -0.3923 -0.2474 -0.0672 0.1481 0.4201 0.779 1.2813 1.9576 2.769 3.6464 4.5597 5.4877 6.4102 7.3141 8.2185 9.1282 10.0572 11.004 11.9333 12.807 13.6644 14.527 15.3902 16.2192 16.9666 17.5926 18.1371 18.6419 19.1392 19.6418 20.1473 20.6465 21.1416 21.6246 22.0824 22.495 22.8293 23.0706 23.2349 23.3459 23.4268 23.5165 23.6276 23.7792 23.9627 24.1693 24.383 24.6091 24.834 25.0411 25.2319 25.4096 25.5605 25.682 25.7631 25.7953 25.7808 25.7353 25.6614 25.5635 25.4508 25.3292 25.1934 25.0423 24.8679 24.677 24.465 24.2369 23.9865 23.7288 23.4746 23.2468 23.0609 22.9363 22.8613 22.831 22.8297 22.8669 22.9483 23.0853 23.2631 23.4741 23.6897 23.8967 24.0752 24.2124 24.3217 24.4237 24.5176 24.599 24.6631 24.7028 24.7233 24.7328 24.7286 24.7016 24.6418 24.5388 24.391 24.1969 23.9365 23.5606 22.9988 22.1949 21.2115 20.1254 18.9776 17.7669 16.4544 15.0115 13.4937 11.9703 10.4799 9.0522 7.6866 6.3745 5.1368 3.9899 2.9502 2.033 1.2954 0.7608 0.3954 0.1348 -0.0461 -0.1773 -0.2704 -0.3339 -0.3676 -0.3778 -0.3653 -0.3435 -0.3228 -0.3074 -0.2934 -0.28 -0.2415 -0.2138 -0.1895 -0.1717 -0.1627 -0.1474 -0.121 -0.1026 -0.0852 -0.0684 -9999 -9999 -9999 -9999 -9999 -9999 -9999 -9999 -9999 -9999 -9999 -9999 -9999 -9999 -9999 -9999 -9999 -9999 -9999 -9999 -9999 -9999 -9999 -9999 -9999 -9999 -9999 -9999 -9999 -9999 -9999 -9999 -9999 -9999 -9999 -9999 -9999 -9999 -9999 -9999 -9999 -9999 -9999 -9999 -9999 -9999 -9999 -9999 -9999 -9999 -9999 -9999 -9999 -9999 -9999 -9999 -9999 -9999 -9999 -9999 -9999 -9999 -9999 -9999 -9999 -9999 -9999 -9999 -9999 -9999 -9999 -9999
27.3762 27.4267 27.4628 27.4976 27.5516 27.6288 27.7276 27.833 27.9352 28.018 28.0666 28.0758 28.0572 28.0202 27.9805 27.9239 27.8329 27.7054 27.5465 27.3779 27.2145 27.0646 26.9184 26.7753 26.6388 26.5092 26.4006 26.337 26.3272 26.381 26.4892 26.6306 26.788 26.9576 27.1273 27.3011 27.4767 27.6548 27.8202 27.9775 28.1267 28.2656 28.3985 28.5187 28.6147 28.6595 28.6448 28.549 28.3826 28.1792 27.964 27.7478 27.5474 27.3627 27.1864 27.0055 26.8142 26.6152 26.3894 26.1369 25.8492 25.5035 25.0734 24.5244 23.806 22.904 21.86 20.7297 19.5837 18.4805 17.4862 16.631 15.9155 15.321 14.8391 14.4793 14.263 14.2059 14.281 14.4616 14.7181 15.035 15.4036 15.8276 16.2841 16.7632 17.2453 17.724 18.1742 18.5992 19.0042 19.4116 19.821 20.2417 20.6466 21.0357 21.4272 21.8223 22.2117 22.5744 22.8632 23.0608 23.1844 23.2705 23.3319 23.3718 23.3724 23.3297 23.2562 23.1898 23.1546 23.1738 23.2568 23.4125 23.6168 23.8621 24.1205 24.368 24.5771 24.7278 24.8115 24.8404 24.8086 24.7076 24.5341 24.2758 23.9447 23.5643 23.1676 22.7891 22.4774 22.2539 22.1103 22.0182 21.9678 21.9575 22.0081 22.1211 22.2822 22.4704 22.6561 22.8016 22.881 22.8761 22.7883 22.6382 22.4164 22.0999 21.6567 21.0682 20.3552 19.574 18.756 17.9204 17.0868 16.2547 15.4356 14.6596 13.9252 13.2464 12.6487 12.1287 11.6787 11.2912 10.9367 10.5944 10.2586 9.9118 9.5574 9.1943 8.8154 8.4142 7.9787 7.5133 7.0227 6.5297 6.0538 5.6041 5.2194 4.9095 4.6515 4.4226 4.193 3.9189 3.6015 3.2175 2.7782 2.2981 1.808 1.3346 0.9271 0.6011 0.3496 0.1474 -0.0236 -0.1751 -0.3029 -0.4098 -0.4957 -0.5609 -0.5977 -0.6224 -0.643 -0.6618 -0.6752 -0.6726 -0.6402 -0.5794 -0.4958 -0.3865 -0.2536 -0.0821 0.1492 0.4687 0.8918 1.4309 2.0617 2.7569 3.4866 4.2423 5.0114 5.793 6.5836 7.3796 8.1779 9.0081 9.884 10.8165 11.8038 12.8024 13.7883 14.7278 15.5704 16.3024 16.954 17.5469 18.1239 18.7042 19.2835 19.869 20.4576 21.0249 21.5624 22.0443 22.4232 22.6868 22.8615 22.9676 23.041 23.1258 23.2362 23.3825 23.5666 23.7702 23.981 24.2061 24.4455 24.6953 24.9511 25.1906 25.3994 25.5756 25.6998 25.7669 25.7893 25.7644 25.7125 25.6361 25.5307 25.408 25.267 25.1094 24.9366 24.7457 24.5118 24.2442 23.9382 23.6232 23.3245 23.0598 22.8502 22.7138 22.6302 22.5991 22.6052 22.6474 22.7452 22.9004 23.1011 23.3304 23.5562 23.7689 23.9655 24.1352 24.2794 24.4091 24.5141 24.5883 24.6445 24.6757 24.6837 24.6725 24.6354 24.5539 24.4271 24.2425 24.0005 23.6936 23.3097 22.8014 22.1211 21.2436 20.1924 19.032 17.7954 16.4945 15.1206 13.673 12.1737 10.6675 9.1884 7.7752 6.4675 5.2791 4.2075 3.2408 2.3747 1.6279 1.0193 0.5582 0.2266 0.0023 -0.1489 -0.2504 -0.3195 -0.362 -0.389 -0.3898 -0.3715 -0.3442 -0.3232 -0.3015 -0.284 -0.2635 -0.2279 -0.1982 -0.1764 -0.1582 -0.1428 -0.132 -0.1105 -0.1031 -0.0916 -9999 -9999 -9999 -9999 -9999 -9999 -9999 -9999 -9999 -9999 -9999 -9999 -9999 -9999 -9999 -9999 -9999 -9999 -9999 -9999 -9999 -9999 -9999 -9999 -9999 -9999 -9999 -9999 -9999 -9999 -9999 -9999 -9999 -9999 -9999 -9999 -9999 -9999 -9999 -9999 -9999 -9999 -9999 -9999 -9999 -9999 -9999 -9999 -9999 -9999 -9999 -9999 -9999 -9999 -9999 -9999 -9999 -9999 -9999 -9999 -9999 -9999 -9999 -9999 -9999 -9999 -9999 -9999 -9999 -9999 -9999 -9999 -9999
27.4309 27.4663 27.489 27.5109 27.5476 27.613 27.6978 27.7869 27.8638 27.9205 27.9408 27.9196 27.8657 27.7987 27.7252 27.6385 27.5327 27.4062 27.2596 27.1111 26.9655 26.8282 26.7051 26.5981 26.5022 26.4179 26.3552 26.3213 26.3338 26.401 26.5129 26.65 26.8085 26.9685 27.1354 27.3051 27.4771 27.6487 27.8035 27.9504 28.0888 28.2107 28.3199 28.4166 28.4883 28.5326 28.51 28.4086 28.2434 28.0418 27.8309 27.6248 27.4232 27.2285 27.0317 26.8214 26.5958 26.3524 26.0894 25.8123 25.5055 25.1394 24.6935 24.1306 23.4072 22.499 21.4532 20.3292 19.1996 18.1168 17.1581 16.373 15.7429 15.2283 14.8241 14.5307 14.3666 14.3386 14.4315 14.6051 14.8394 15.1206 15.4529 15.8386 16.2537 16.6716 17.0834 17.4792 17.8578 18.2247 18.5881 18.9493 19.3164 19.6919 20.068 20.4432 20.8321 21.2435 21.6607 22.0583 22.3796 22.5812 22.7131 22.8129 22.9112 22.9957 23.0197 22.9574 22.8448 22.7376 22.6768 22.6836 22.7694 22.9543 23.2033 23.5017 23.8153 24.1226 24.3713 24.5347 24.6139 24.6357 24.5952 24.4954 24.3252 24.0887 23.7823 23.4307 23.0542 22.6928 22.3925 22.1941 22.0713 21.9956 21.9527 21.9454 22.0026 22.1376 22.3284 22.5424 22.7517 22.9182 23.0108 23.004 22.9069 22.7387 22.4968 22.1678 21.7338 21.1804 20.5215 19.7918 19.011 18.2081 17.418 16.6625 15.9329 15.228 14.545 13.9075 13.3598 12.9396 12.615 12.3439 12.0996 11.8623 11.6045 11.3262 11.0362 10.7542 10.4829 10.1921 9.7996 9.259 8.6318 8.0079 7.4341 6.9198 6.4813 6.1122 5.8059 5.5461 5.3062 5.0348 4.6863 4.2126 3.644 3.0277 2.4008 1.7938 1.2826 0.9054 0.6275 0.399 0.1893 -0.0044 -0.1699 -0.301 -0.4047 -0.4841 -0.5318 -0.5668 -0.599 -0.63 -0.6597 -0.6703 -0.649 -0.6036 -0.542 -0.4709 -0.3812 -0.2548 -0.0683 0.1901 0.528 0.9454 1.4251 1.9477 2.5027 3.0739 3.6821 4.346 5.0266 5.6981 6.3557 7.0338 7.8284 8.8224 9.9344 11.0753 12.1928 13.2488 14.1927 15.0072 15.7211 16.3903 17.0426 17.6921 18.3502 19.0239 19.7018 20.373 21.0109 21.5776 22.0201 22.2994 22.4548 22.5506 22.611 22.6786 22.7821 22.9385 23.1332 23.3456 23.5592 23.7785 24.0304 24.3296 24.6521 24.9599 25.2321 25.4641 25.6322 25.7308 25.7732 25.7699 25.7411 25.6822 25.5888 25.4601 25.3117 25.1502 24.9911 24.8034 24.5678 24.253 23.8912 23.5121 23.1662 22.8526 22.619 22.478 22.4121 22.3817 22.3863 22.4257 22.5287 22.7104 22.9453 23.1958 23.4291 23.6482 23.8539 24.0526 24.2318 24.378 24.4807 24.5484 24.5864 24.6041 24.596 24.5548 24.4748 24.344 24.146 23.8679 23.5182 23.1004 22.6092 22.0058 21.23 20.2507 19.105 17.8519 16.5367 15.1759 13.7618 12.3091 10.8285 9.3368 7.8675 6.4704 5.2173 4.1737 3.2937 2.5153 1.8215 1.2205 0.7283 0.3539 0.0821 -0.1009 -0.2173 -0.2882 -0.3317 -0.3623 -0.3792 -0.3738 -0.3517 -0.3222 -0.2946 -0.2763 -0.2639 -0.2454 -0.2112 -0.1874 -0.1654 -0.151 -0.1385 -0.132 -0.1142 -0.099 -9999 -9999 -9999 -9999 -9999 -9999 -9999 -9999 -9999 -9999 -9999 -9999 -9999 -9999 -9999 -9999 -9999 -9999 -9999 -9999 -9999 -9999 -9999 -9999 -9999 -9999 -9999 -9999 -9999 -9999 -9999 -9999 -9999 -9999 -9999 -9999 -9999 -9999 -9999 -9999 -9999 -9999 -9999 -9999 -9999 -9999 -9999 -9999 -9999 -9999 -9999 -9999 -9999 -9999 -9999 -9999 -9999 -9999 -9999 -9999 -9999 -9999 -9999 -9999 -9999 -9999 -9999 -9999 -9999 -9999 -9999 -9999 -9999 -9999
27.4812 27.5034 27.5096 27.5048 27.5174 27.5792 27.6552 27.7223 27.777 27.8107 27.8071 27.7397 27.6419 27.5356 27.4316 27.3224 27.2118 27.0821 26.9497 26.8152 26.6909 26.5715 26.4748 26.4127 26.371 26.3329 26.3047 26.2938 26.3247 26.4147 26.5434 26.6865 26.8342 26.981 27.1393 27.3074 27.4733 27.6371 27.786 27.9169 28.0294 28.1215 28.2021 28.2721 28.3361 28.3822 28.3681 28.2402 28.0533 27.854 27.6524 27.4509 27.2508 27.0499 26.8438 26.6162 26.3598 26.0715 25.7728 25.4817 25.1615 24.7835 24.3337 23.7879 23.0858 22.1483 21.0745 19.9477 18.8205 17.7353 16.7882 16.1034 15.5823 15.1614 14.833 14.5824 14.4595 14.4859 14.6108 14.7911 15.0082 15.2419 15.5252 15.8813 16.2655 16.6271 16.9594 17.2622 17.5591 17.8644 18.169 18.4722 18.7779 19.1045 19.447 19.7917 20.1646 20.5769 21.0255 21.4814 21.8627 22.039 22.1403 22.2496 22.387 22.5433 22.6273 22.5113 22.3397 22.1952 22.1107 22.0987 22.1881 22.4072 22.7211 23.0797 23.464 23.8488 24.1662 24.3263 24.3943 24.4117 24.3789 24.2942 24.1423 23.9278 23.6519 23.3236 22.9603 22.5911 22.2802 22.1273 22.0507 21.9913 21.9474 21.9204 21.956 22.1216 22.3487 22.5837 22.8174 23.0122 23.127 23.0977 22.9754 22.7907 22.5428 22.2215 21.8057 21.2806 20.67 19.9857 19.2475 18.4711 17.7118 17.0491 16.4273 15.8013 15.1649 14.5445 14.0241 13.7269 13.5409 13.3877 13.248 13.1127 12.9481 12.7101 12.4617 12.2443 12.0762 11.9282 11.6422 10.9682 10.1679 9.4165 8.7558 8.1826 7.6983 7.2834 6.9367 6.6574 6.4236 6.1914 5.8577 5.2789 4.568 3.8315 3.0718 2.3124 1.6654 1.2816 1.0042 0.7527 0.4919 0.2431 0.0227 -0.1403 -0.262 -0.3534 -0.417 -0.4588 -0.4982 -0.5596 -0.6111 -0.6393 -0.6285 -0.5881 -0.5368 -0.5115 -0.4697 -0.3891 -0.2496 -0.053 0.2056 0.5137 0.8661 1.243 1.6282 2.0123 2.4488 3.0198 3.6195 4.1773 4.6709 5.1437 5.7839 6.8761 8.1453 9.4063 10.6334 11.8075 12.8638 13.7147 14.462 15.1807 15.8981 16.6186 17.3522 18.1202 18.8947 19.6548 20.3946 21.0848 21.6258 21.8922 22.0086 22.0792 22.1308 22.1841 22.2764 22.4653 22.6943 22.9204 23.1312 23.3393 23.5854 23.9535 24.3541 24.7279 25.0563 25.3481 25.5672 25.6827 25.7341 25.7449 25.7288 25.691 25.6136 25.4715 25.3105 25.1456 24.9851 24.8294 24.616 24.2426 23.8132 23.393 22.9916 22.6261 22.3537 22.2404 22.2081 22.2017 22.2028 22.2166 22.3023 22.5293 22.8122 23.0925 23.3373 23.5506 23.7508 23.9809 24.1901 24.3498 24.4511 24.494 24.4977 24.4962 24.4623 24.3851 24.258 24.0775 23.8087 23.4187 22.9444 22.4142 21.8304 21.1652 20.3321 19.2183 17.9461 16.6049 15.2253 13.8158 12.3922 10.9491 9.4922 8.0334 6.5816 5.1693 3.9426 3.0957 2.4363 1.8492 1.3122 0.8353 0.4433 0.1548 -0.0498 -0.1839 -0.2649 -0.3048 -0.3211 -0.3458 -0.3609 -0.3523 -0.3256 -0.292 -0.2562 -0.2484 -0.2373 -0.2169 -0.1888 -0.1643 -0.1409 -0.13 -0.1205 -0.1136 -0.1 -0.0904 -9999 -9999 -9999 -9999 -9999 -9999 -9999 -9999 -9999 -9999 -9999 -9999 -9999 -9999 -9999 -9999 -9999 -9999 -9999 -9999 -9999 -9999 -9999 -9999 -9999 -9999 -9999 -9999 -9999 -9999 -9999 -9999 -9999 -9999 -9999 -9999 -9999 -9999 -9999 -9999 -9999 -9999 -9999 -9999 -9999 -9999 -9999 -9999 -9999 -9999 -9999 -9999 -9999 -9999 -9999 -9999 -9999 -9999 -9999 -9999 -9999 -9999 -9999 -9999 -9999 -9999 -9999 -9999 -9999 -9999 -9999 -9999 -9999 -9999
27.5131 27.5321 27.5322 27.5094 27.4614 27.5503 27.6116 27.6512 27.6725 27.6764 27.6646 27.5273 27.3837 27.2374 27.1051 26.98 26.8692 26.7316 26.6112 26.5025 26.4086 26.3199 26.2355 26.2406 26.2458 26.2525 26.2637 26.2794 26.3011 26.4406 26.584 26.7277 26.8702 27.0092 27.1406 27.3144 27.4738 27.6252 27.7552 27.8655 27.9536 28.0075 28.0471 28.0815 28.1187 28.1592 28.2093 27.9987 27.7997 27.6098 27.4233 27.2365 27.0433 26.8537 26.6438 26.4023 26.128 25.805 25.4356 25.1653 24.83 24.4311 23.9683 23.4372 22.8417 21.7914 20.6959 19.5816 18.4765 17.3985 16.3709 15.8854 15.4752 15.1389 14.8802 14.6906 14.5597 14.684 14.8469 15.0425 15.2522 15.4542 15.6354 16.0158 16.3565 16.6505 16.9075 17.1186 17.2943 17.5458 17.7732 17.9965 18.2287 18.4868 18.7898 19.0791 19.4184 19.8199 20.2752 20.7805 21.3326 21.3588 21.4291 21.5477 21.7139 21.9334 22.2063 21.9257 21.7071 21.5523 21.4657 21.4508 21.5074 21.8151 22.1852 22.5977 23.0409 23.5041 23.9677 24.0606 24.1343 24.1691 24.1589 24.1001 23.982 23.7981 23.5589 23.2645 22.9228 22.5511 22.1474 22.1234 22.0883 22.0382 21.9851 21.9347 21.8766 22.1244 22.3737 22.6127 22.8477 23.0615 23.2455 23.1394 22.9972 22.8087 22.5673 22.2618 21.8811 21.39 20.8263 20.1973 19.5112 18.7734 17.9811 17.4944 16.9718 16.4248 15.8478 15.2503 14.6323 14.5708 14.5032 14.4342 14.3655 14.3039 14.2625 13.995 13.7634 13.582 13.4639 13.4273 13.4881 12.4397 11.5007 10.6723 9.9561 9.3462 8.8412 8.3766 8.003 7.7092 7.4736 7.2793 7.1158 6.3092 5.5094 4.7007 3.8608 2.9868 2.0725 1.8277 1.5441 1.2403 0.9092 0.5834 0.2777 0.0961 -0.0542 -0.1715 -0.2585 -0.3164 -0.3448 -0.4572 -0.5353 -0.5843 -0.589 -0.555 -0.4826 -0.533 -0.5349 -0.4966 -0.4036 -0.2573 -0.0656 0.1498 0.3971 0.6545 0.908 1.135 1.3192 1.9125 2.4413 2.8973 3.2643 3.5496 3.755 5.185 6.5489 7.8525 9.1168 10.3621 11.6059 12.3703 13.1441 13.9247 14.7145 15.5044 16.2932 17.1689 18.0241 18.8642 19.6847 20.4804 21.2487 21.3767 21.4767 21.5551 21.6167 21.6698 21.714 21.9969 22.2659 22.5213 22.7486 22.9481 23.1121 23.6164 24.0807 24.5032 24.8722 25.2059 25.5028 25.5913 25.6462 25.6687 25.6669 25.6429 25.6029 25.4189 25.2288 25.0473 24.884 24.753 24.6591 24.1433 23.67 23.23 22.8206 22.4307 22.0554 22.0565 22.0632 22.0724 22.0788 22.0782 22.0681 22.4171 22.746 23.0489 23.3058 23.5104 23.6553 23.9592 24.1897 24.349 24.4362 24.4473 24.3807 24.3748 24.3012 24.1662 23.9743 23.7255 23.4236 22.867 22.2653 21.6173 20.9304 20.202 19.4295 18.0748 16.6911 15.2821 13.8582 12.4339 11.0093 9.6031 8.2029 6.8083 5.4132 4.0264 2.64 2.1756 1.7218 1.2852 0.8727 0.5038 0.1826 -0.0189 -0.1637 -0.2569 -0.3003 -0.3106 -0.2839 -0.3241 -0.3417 -0.3316 -0.3 -0.2603 -0.209 -0.2133 -0.2122 -0.1966 -0.1684 -0.1417 -0.1091 -0.1073 -0.1021 -0.0952 -0.0825 -9999 -9999 -9999 -9999 -9999 -9999 -9999 -9999 -9999 -9999 -9999 -9999 -9999 -9999 -9999 -9999 -9999 -9999 -9999 -9999 -9999 -9999 -9999 -9999 -9999 -9999 -9999 -9999 -9999 -9999 -9999 -9999 -9999 -9999 -9999 -9999 -9999 -9999 -9999 -9999 -9999 -9999 -9999 -9999 -9999 -9999 -9999 -9999 -9999 -9999 -9999 -9999 -9999 -9999 -9999 -9999 -9999 -9999 -9999 -9999 -9999 -9999 -9999 -9999 -9999 -9999 -9999 -9999 -9999 -9999 -9999 -9999 -9999 -9999 -9999
27.5158 27.5535 27.5665 27.5572 27.5464 27.5642 27.5829 27.5761 27.5488 27.4967 27.4072 27.2605 27.0912 26.913 26.7456 26.5949 26.4641 26.3465 26.2536 26.1832 26.1298 26.0909 26.077 26.0972 26.1423 26.191 26.2424 26.3008 26.3815 26.5006 26.6434 26.7836 26.9216 27.0573 27.1919 27.338 27.4818 27.6124 27.7224 27.8026 27.8502 27.868 27.8596 27.8431 27.8249 27.8042 27.7581 27.6244 27.4643 27.3081 27.1546 26.9954 26.8268 26.6428 26.4375 26.1978 25.9157 25.5893 25.2416 24.8957 24.5195 24.0792 23.5781 22.9937 22.273 21.3432 20.3058 19.2345 18.1878 17.2027 16.3766 15.8194 15.445 15.1749 14.9911 14.8861 14.872 14.981 15.1644 15.372 15.5892 15.8003 16.0246 16.2905 16.5567 16.7734 16.9431 17.0715 17.1848 17.3065 17.4308 17.5456 17.6754 17.8354 18.0461 18.2986 18.6099 18.9839 19.4094 19.8535 20.2319 20.4305 20.5618 20.704 20.8756 21.0541 21.1638 21.076 20.9271 20.812 20.7569 20.779 20.9188 21.2068 21.6022 22.0602 22.5419 23.0228 23.4282 23.6696 23.8122 23.9027 23.9388 23.9162 23.8396 23.7016 23.506 23.2592 22.97 22.6605 22.401 22.2759 22.2128 22.1518 22.0981 22.0566 22.0754 22.2206 22.427 22.6366 22.845 23.0193 23.1203 23.089 22.9718 22.7999 22.5792 22.2889 21.9354 21.5052 21.0035 20.4445 19.842 19.1982 18.5858 18.076 17.603 17.1279 16.6387 16.1504 15.7612 15.5915 15.5231 15.4791 15.4384 15.3843 15.2913 15.1124 14.9026 14.7171 14.5629 14.4203 14.1149 13.4035 12.5454 11.7298 10.9986 10.3683 9.8279 9.3679 8.9803 8.6698 8.4074 8.1553 7.7933 7.1774 6.4255 5.6332 4.8081 3.9719 3.2176 2.7089 2.2894 1.8752 1.4515 1.0477 0.694 0.4291 0.2282 0.0671 -0.057 -0.1558 -0.2445 -0.3495 -0.4386 -0.5048 -0.5358 -0.5407 -0.5415 -0.5713 -0.5896 -0.5773 -0.5215 -0.4248 -0.294 -0.1449 0.0239 0.1983 0.3723 0.54 0.7686 1.1339 1.5392 1.9049 2.2216 2.5393 3.0524 4.0362 5.2307 6.4418 7.6411 8.8315 9.9419 10.8798 11.7547 12.6247 13.4998 14.3851 15.279 16.195 17.1058 17.9931 18.8501 19.648 20.2833 20.6344 20.831 20.9657 21.0772 21.1895 21.3415 21.5889 21.8748 22.1582 22.4259 22.6877 22.9884 23.4103 23.8615 24.2874 24.6649 25.0039 25.2665 25.4197 25.5025 25.5389 25.5398 25.5056 25.4231 25.2598 25.057 24.8482 24.6473 24.4619 24.2266 23.8492 23.4296 23.0298 22.6637 22.3324 22.0878 22.0013 21.9942 22.0116 22.0397 22.0824 22.1964 22.4518 22.7658 23.0759 23.3492 23.5791 23.7968 24.0373 24.2458 24.3859 24.453 24.4384 24.3714 24.2714 24.1199 23.9023 23.6185 23.2559 22.7914 22.1802 21.4696 20.7009 19.8851 19.0044 17.9835 16.7131 15.3149 13.8841 12.4469 11.0267 9.6355 8.281 6.97 5.6872 4.4345 3.2414 2.2359 1.6168 1.2009 0.8469 0.5282 0.2495 0.0191 -0.1463 -0.2482 -0.3086 -0.3353 -0.3354 -0.3202 -0.3265 -0.3286 -0.3127 -0.2835 -0.2524 -0.2169 -0.2033 -0.1962 -0.1783 -0.1528 -0.1314 -0.1078 -0.0931 -0.0851 -0.08 -9999 -9999 -9999 -9999 -9999 -9999 -9999 -9999 -9999 -9999 -9999 -9999 -9999 -9999 -9999 -9999 -9999 -9999 -9999 -9999 -9999 -9999 -9999 -9999 -9999 -9999 -9999 -9999 -9999 -9999 -9999 -9999 -9999 -9999 -9999 -9999 -9999 -9999 -9999 -9999 -9999 -9999 -9999 -9999 -9999 -9999 -9999 -9999 -9999 -9999 -9999 -9999 -9999 -9999 -9999 -9999 -9999 -9999 -9999 -9999 -9999 -9999 -9999 -9999 -9999 -9999 -9999 -9999 -9999 -9999 -9999 -9999 -9999 -9999 -9999 -9999
27.4971 27.5646 27.6041 27.6179 27.6149 27.5964 27.5593 27.4967 27.4106 27.2976 27.157 26.9777 26.7753 26.5639 26.3614 26.1836 26.0435 25.9412 25.8856 25.8583 25.859 25.8768 25.9139 25.9757 26.0553 26.1468 26.2418 26.3446 26.4537 26.5827 26.7163 26.8524 26.9858 27.1145 27.2404 27.371 27.4935 27.6064 27.6927 27.738 27.7449 27.7112 27.6462 27.5634 27.4743 27.3803 27.2838 27.1711 27.0609 26.9579 26.8513 26.7308 26.5936 26.4285 26.2298 25.9955 25.7204 25.3993 25.041 24.6494 24.2159 23.7338 23.1784 22.5343 21.7746 20.8839 19.9069 18.9053 17.9286 17.0436 16.3197 15.8006 15.46 15.2546 15.1492 15.1289 15.1964 15.3432 15.543 15.7738 16.0097 16.2443 16.4674 16.6791 16.8584 16.9875 17.0765 17.1216 17.1385 17.1458 17.1446 17.1378 17.1396 17.1831 17.2946 17.4945 17.7715 18.1128 18.4836 18.8437 19.1594 19.4049 19.5964 19.7702 19.9345 20.0663 20.1347 20.1183 20.0549 19.9962 19.9929 20.0649 20.2492 20.5624 20.985 21.4725 21.9918 22.4882 22.9153 23.2346 23.4619 23.6163 23.7133 23.7481 23.7243 23.6351 23.4951 23.3029 23.0758 22.8435 22.6462 22.5052 22.4077 22.3258 22.26 22.225 22.2521 22.3535 22.5053 22.667 22.8265 22.95 23.0189 23.0103 22.9271 22.7843 22.5845 22.3278 22.0134 21.6414 21.2113 20.7324 20.2186 19.6895 19.1829 18.7252 18.3019 17.8972 17.5001 17.1315 16.8415 16.6663 16.5699 16.5154 16.4652 16.3968 16.2838 16.1128 15.9021 15.6719 15.436 15.1531 14.7325 14.1101 13.3648 12.6014 11.8899 11.2568 10.711 10.2514 9.8715 9.5514 9.2532 8.9421 8.5397 8.0006 7.3499 6.6342 5.8741 5.1143 4.3994 3.7747 3.2083 2.656 2.1111 1.6104 1.1765 0.84 0.5861 0.3802 0.2106 0.0615 -0.074 -0.1978 -0.3047 -0.3956 -0.4544 -0.5003 -0.5424 -0.5861 -0.616 -0.6288 -0.5988 -0.5396 -0.4571 -0.3576 -0.2492 -0.1356 -0.0038 0.1417 0.3324 0.5899 0.8794 1.172 1.4759 1.8414 2.3778 3.1661 4.1356 5.1753 6.2405 7.3097 8.3534 9.349 10.324 11.2955 12.2729 13.2517 14.2268 15.1901 16.1423 17.0624 17.9305 18.7109 19.347 19.7958 20.1002 20.32 20.5037 20.6901 20.9118 21.1836 21.4955 21.8209 22.1414 22.4722 22.8338 23.2428 23.6699 24.0814 24.4466 24.7691 25.0246 25.2034 25.3091 25.3606 25.3606 25.317 25.208 25.0343 24.8074 24.56 24.3034 24.0533 23.7705 23.453 23.1153 22.7967 22.5044 22.2611 22.0813 21.9964 21.9761 22.0051 22.0559 22.148 22.3062 22.5495 22.8425 23.1552 23.4456 23.7088 23.9469 24.1615 24.337 24.45 24.4891 24.4485 24.3386 24.1585 23.9116 23.596 23.202 22.718 22.1235 21.404 20.5822 19.6864 18.7257 17.6903 16.5423 15.2531 13.8626 12.4299 10.9991 9.5985 8.2591 6.9937 5.7948 4.6632 3.596 2.6233 1.8218 1.2426 0.8343 0.5196 0.2671 0.0581 -0.1063 -0.2275 -0.3018 -0.3498 -0.357 -0.3506 -0.3391 -0.3308 -0.3221 -0.3077 -0.2734 -0.243 -0.2162 -0.1974 -0.1867 -0.1678 -0.1373 -0.1181 -0.1004 -0.0841 -0.0722 -0.0699 -9999 -9999 -9999 -9999 -9999 -9999 -9999 -9999 -9999 -9999 -9999 -9999 -9999 -9999 -9999 -9999 -9999 -9999 -9999 -9999 -9999 -9999 -9999 -9999 -9999 -9999 -9999 -9999 -9999 -9999 -9999 -9999 -9999 -9999 -9999 -9999 -9999 -9999 -9999 -9999 -9999 -9999 -9999 -9999 -9999 -9999 -9999 -9999 -9999 -9999 -9999 -9999 -9999 -9999 -9999 -9999 -9999 -9999 -9999 -9999 -9999 -9999 -9999 -9999 -9999 -9999 -9999 -9999 -9999 -9999 -9999 -9999 -9999 -9999 -9999 -9999
27.4652 27.5637 27.6329 27.6687 27.6663 27.6184 27.526 27.4064 27.2619 27.0981 26.9056 26.6894 26.4504 26.2038 25.9613 25.7523 25.5993 25.5229 25.5096 25.5391 25.5909 25.6672 25.7521 25.8576 25.9784 26.1115 26.2455 26.3916 26.5293 26.666 26.7966 26.9259 27.0489 27.1678 27.2848 27.4012 27.5078 27.6026 27.6649 27.6798 27.6462 27.5564 27.4196 27.2568 27.0832 26.914 26.7768 26.6835 26.6184 26.5723 26.5177 26.45 26.3472 26.2047 26.0214 25.7969 25.5226 25.2126 24.8428 24.4135 23.93 23.3929 22.7856 22.1051 21.3311 20.4599 19.5271 18.5777 17.6646 16.8575 16.2112 15.7564 15.4778 15.3493 15.3289 15.39 15.5299 15.7246 15.9598 16.228 16.4993 16.7597 16.981 17.1485 17.2541 17.301 17.2966 17.2493 17.1669 17.0663 16.945 16.8019 16.656 16.5564 16.5634 16.7086 16.9689 17.2759 17.5874 17.8779 18.1545 18.4112 18.6476 18.844 18.9909 19.0959 19.1543 19.176 19.1729 19.1726 19.2005 19.3059 19.519 19.8683 20.3341 20.8702 21.4247 21.9653 22.4353 22.8149 23.1051 23.3314 23.4896 23.5917 23.6268 23.5969 23.5044 23.376 23.2112 23.0444 22.8851 22.7487 22.6303 22.5304 22.45 22.4038 22.4136 22.4829 22.5903 22.7123 22.8257 22.9046 22.9494 22.9477 22.8898 22.7828 22.6142 22.3905 22.1198 21.8076 21.4525 21.056 20.6314 20.1968 19.7774 19.3887 19.0305 18.7003 18.3864 18.105 17.8768 17.7094 17.5949 17.5232 17.4526 17.3681 17.2371 17.0398 16.787 16.5076 16.1875 15.8121 15.3375 14.7416 14.0525 13.3473 12.6634 12.0331 11.4944 11.049 10.6787 10.3692 10.0731 9.7421 9.3515 8.8681 8.3014 7.681 7.0162 6.3211 5.6268 4.9337 4.2409 3.5545 2.8734 2.2415 1.7145 1.3194 1.0246 0.7856 0.5681 0.3628 0.175 0.0196 -0.1115 -0.2274 -0.32 -0.4033 -0.4834 -0.5507 -0.6022 -0.6331 -0.6308 -0.5967 -0.5504 -0.4923 -0.4333 -0.3559 -0.261 -0.1426 0.0053 0.1912 0.3995 0.6355 0.9086 1.2635 1.7488 2.3937 3.1725 4.0311 4.9266 5.8643 6.8343 7.8469 8.8983 9.9666 11.0381 12.1073 13.1498 14.1617 15.1441 16.0826 16.9684 17.7664 18.4326 18.946 19.3302 19.6233 19.877 20.1359 20.4185 20.7382 21.0984 21.4722 21.85 22.2417 22.6428 23.0532 23.4701 23.8633 24.2131 24.5271 24.7762 24.9576 25.0782 25.1388 25.1396 25.0914 24.9645 24.7656 24.5038 24.2036 23.8922 23.5847 23.2844 23.008 22.7528 22.5228 22.3241 22.1592 22.0406 21.98 21.968 22.0076 22.08 22.2025 22.3876 22.6381 22.9297 23.2542 23.5641 23.848 24.0949 24.2952 24.4364 24.5174 24.5262 24.4454 24.2751 24.0141 23.6625 23.2356 22.735 22.1353 21.4196 20.5781 19.6245 18.5926 17.5018 16.3421 15.1063 13.7825 12.3874 10.9584 9.5333 8.1587 6.8807 5.7243 4.677 3.7182 2.8355 2.055 1.4051 0.9087 0.5419 0.2789 0.0779 -0.076 -0.1953 -0.2791 -0.3412 -0.3625 -0.3602 -0.3467 -0.3328 -0.316 -0.3116 -0.2944 -0.2611 -0.2287 -0.2054 -0.1859 -0.1671 -0.1511 -0.1264 -0.0987 -0.0815 -0.0648 -0.0514 -9999 -9999 -9999 -9999 -9999 -9999 -9999 -9999 -9999 -9999 -9999 -9999 -9999 -9999 -9999 -9999 -9999 -9999 -9999 -9999 -9999 -9999 -9999 -9999 -9999 -9999 -9999 -9999 -9999 -9999 -9999 -9999 -9999 -9999 -9999 -9999 -9999 -9999 -9999 -9999 -9999 -9999 -9999 -9999 -9999 -9999 -9999 -9999 -9999 -9999 -9999 -9999 -9999 -9999 -9999 -9999 -9999 -9999 -9999 -9999 -9999 -9999 -9999 -9999 -9999 -9999 -9999 -9999 -9999 -9999 -9999 -9999 -9999 -9999 -9999 -9999 -9999
27.4202 27.5413 27.6439 27.7114 27.7144 27.6344 27.4921 27.3135 27.1153 26.8979 26.6654 26.4184 26.1506 25.8658 25.579 25.3127 25.1367 25.0994 25.1553 25.2486 25.3603 25.4745 25.6008 25.7501 25.9188 26.0906 26.2708 26.444 26.6092 26.7551 26.8875 27.0072 27.1196 27.2208 27.3257 27.4315 27.532 27.6087 27.6472 27.6381 27.5643 27.4173 27.2083 26.9545 26.6843 26.4276 26.2412 26.1699 26.1731 26.1893 26.1941 26.172 26.1063 25.9834 25.8099 25.5909 25.3302 25.0184 24.639 24.1726 23.6382 23.0535 22.4152 21.7149 20.9423 20.0809 19.1692 18.2534 17.3837 16.6173 16.0324 15.6621 15.4829 15.4469 15.5168 15.6676 15.8774 16.1275 16.4081 16.7143 17.0317 17.3233 17.5573 17.6904 17.7326 17.6998 17.6119 17.4671 17.2941 17.0982 16.8739 16.5984 16.284 15.9952 15.8709 15.9892 16.2695 16.5646 16.8156 17.0173 17.2386 17.5079 17.7901 18.0081 18.1409 18.2032 18.2461 18.2962 18.3513 18.3922 18.4332 18.5294 18.7498 19.1446 19.6751 20.2727 20.8804 21.4721 21.9944 22.4212 22.7674 23.0544 23.2803 23.455 23.5555 23.5791 23.5413 23.4665 23.3594 23.2475 23.1245 22.9954 22.87 22.7514 22.6495 22.5791 22.5616 22.611 22.6993 22.7886 22.8558 22.8952 22.9134 22.9184 22.8988 22.8243 22.6813 22.4898 22.2604 22.0062 21.733 21.4183 21.0729 20.7136 20.3652 20.0492 19.7685 19.5068 19.2651 19.0464 18.8589 18.6987 18.573 18.4824 18.4002 18.3042 18.1522 17.9121 17.6 17.2538 16.8648 16.4262 15.9181 15.3347 14.6872 14.0141 13.3458 12.7207 12.1874 11.7755 11.4523 11.1685 10.8868 10.5745 10.2111 9.7855 9.3015 8.7679 8.1944 7.5796 6.9099 6.1685 5.3741 4.5554 3.7304 2.9422 2.3034 1.8734 1.5824 1.3266 1.0609 0.7766 0.5221 0.3294 0.1755 0.0332 -0.0985 -0.2332 -0.3554 -0.457 -0.5345 -0.5873 -0.6022 -0.5938 -0.5739 -0.5551 -0.53 -0.4873 -0.4182 -0.3264 -0.2136 -0.087 0.0595 0.2374 0.4645 0.7666 1.1732 1.698 2.3135 2.998 3.7213 4.4942 5.3675 6.3904 7.5056 8.6612 9.8224 10.9688 12.0705 13.1161 14.1093 15.0703 15.986 16.8282 17.5448 18.1058 18.5368 18.8942 19.2116 19.5229 19.8615 20.2476 20.6678 21.1053 21.5439 21.9806 22.4141 22.8359 23.2437 23.6237 23.9684 24.2667 24.5081 24.6882 24.8092 24.8763 24.8921 24.8405 24.7061 24.4725 24.1619 23.8051 23.4368 23.0716 22.7603 22.5271 22.3597 22.223 22.116 22.0277 21.9701 21.939 21.947 21.997 22.0858 22.2253 22.4284 22.6938 23.0093 23.3449 23.6754 23.9803 24.2338 24.4139 24.5233 24.5662 24.5372 24.4196 24.188 23.8286 23.359 22.811 22.2051 21.5121 20.6902 19.7089 18.6068 17.4361 16.2288 14.9797 13.6798 12.3275 10.9283 9.5018 8.0807 6.7184 5.4962 4.4789 3.6183 2.8433 2.1391 1.5167 0.9992 0.5982 0.3032 0.0902 -0.0608 -0.1678 -0.247 -0.3044 -0.3435 -0.3541 -0.3428 -0.3226 -0.3011 -0.2874 -0.2752 -0.2584 -0.2256 -0.1995 -0.1753 -0.158 -0.1403 -0.1298 -0.1065 -0.0889 -0.0729 -0.0569 -9999 -9999 -9999 -9999 -9999 -9999 -9999 -9999 -9999 -9999 -9999 -9999 -9999 -9999 -9999 -9999 -9999 -9999 -9999 -9999 -9999 -9999 -9999 -9999 -9999 -9999 -9999 -9999 -9999 -9999 -9999 -9999 -9999 -9999 -9999 -9999 -9999 -9999 -9999 -9999 -9999 -9999 -9999 -9999 -9999 -9999 -9999 -9999 -9999 -9999 -9999 -9999 -9999 -9999 -9999 -9999 -9999 -9999 -9999 -9999 -9999 -9999 -9999 -9999 -9999 -9999 -9999 -9999 -9999 -9999 -9999 -9999 -9999 -9999 -9999 -9999 -9999 -9999
27.3505 27.4918 27.6196 27.728 27.7601 27.6317 27.4287 27.2025 26.9619 26.7068 26.4406 26.1733 25.8932 25.5841 25.2431 24.8969 24.6619 24.7016 24.8567 25.0209 25.1698 25.3069 25.461 25.6583 25.8707 26.0886 26.2981 26.5038 26.6939 26.8495 26.9791 27.097 27.1964 27.2778 27.3579 27.4658 27.5615 27.6268 27.6532 27.6283 27.5204 27.3065 27.019 26.6832 26.3151 25.9405 25.6693 25.6538 25.745 25.8301 25.8874 25.9072 25.8763 25.7632 25.5935 25.3811 25.125 24.8239 24.4454 23.934 23.34 22.7132 22.05 21.3526 20.5929 19.7313 18.8295 17.9434 17.1013 16.3506 15.7877 15.532 15.4809 15.5502 15.71 15.9479 16.2357 16.5343 16.8609 17.2197 17.5842 17.9395 18.2086 18.3023 18.2868 18.1947 18.0293 17.7935 17.5254 17.2764 16.9819 16.5921 16.1072 15.5747 15.2317 15.4189 15.7916 16.0959 16.282 16.3544 16.45 16.7783 17.1325 17.3691 17.4714 17.4591 17.4343 17.5364 17.6597 17.727 17.754 17.7855 17.9543 18.4242 19.0483 19.7068 20.3713 21.0166 21.6034 22.0595 22.4398 22.7784 23.0758 23.3245 23.5064 23.5767 23.581 23.5524 23.5021 23.4402 23.3629 23.2439 23.1124 22.9843 22.8599 22.7527 22.6996 22.757 22.8476 22.9193 22.9458 22.9315 22.9111 22.9509 22.9712 22.9279 22.81 22.6321 22.4306 22.2555 22.0622 21.8256 21.546 21.2418 20.9457 20.7108 20.503 20.3035 20.1169 19.9493 19.7902 19.6259 19.4803 19.3712 19.2766 19.1896 19.0334 18.7225 18.3384 17.9284 17.4876 17.0111 16.4835 15.9053 15.2859 14.6391 13.9821 13.3422 12.7968 12.4468 12.1939 11.9563 11.7081 11.4285 11.1036 10.7357 10.3166 9.8663 9.3892 8.8739 8.2683 7.4832 6.594 5.671 4.7132 3.738 2.9348 2.5523 2.32 2.0602 1.7288 1.3346 0.9709 0.7539 0.5852 0.4064 0.2141 0.0168 -0.1604 -0.3024 -0.4102 -0.4835 -0.5233 -0.5343 -0.5271 -0.5437 -0.5586 -0.5425 -0.5013 -0.4297 -0.3402 -0.2679 -0.1831 -0.0594 0.1119 0.3475 0.6644 1.0787 1.5676 2.0984 2.6407 3.2197 3.9421 4.9936 6.19 7.4105 8.6289 9.8448 11.0067 12.0495 13.0373 14.012 14.9727 15.8866 16.6824 17.2682 17.7254 18.1254 18.497 18.8593 19.2462 19.7106 20.2076 20.7038 21.1984 21.688 22.152 22.5837 22.9881 23.3549 23.6866 23.9798 24.2163 24.3899 24.5067 24.5757 24.589 24.5595 24.4331 24.1534 23.788 23.3811 22.9536 22.5236 22.1759 22.0191 21.9522 21.9098 21.8804 21.867 21.8677 21.8666 21.8888 21.9548 22.0558 22.203 22.4132 22.7048 23.0459 23.4058 23.7601 24.0893 24.3533 24.5012 24.5662 24.5673 24.5029 24.3571 24.0708 23.5784 22.9665 22.2949 21.5845 20.826 19.9339 18.7825 17.511 16.2161 14.9129 13.6012 12.2699 10.9055 9.5127 8.1047 6.6928 5.3119 4.1089 3.2845 2.6463 2.0639 1.5179 1.0272 0.6158 0.3096 0.0934 -0.0603 -0.1643 -0.2287 -0.2689 -0.313 -0.3409 -0.3426 -0.3226 -0.2968 -0.265 -0.2565 -0.2472 -0.231 -0.2013 -0.1746 -0.1488 -0.136 -0.1212 -0.1081 -0.0901 -0.0698 -0.052 -0.0419 -9999 -9999 -9999 -9999 -9999 -9999 -9999 -9999 -9999 -9999 -9999 -9999 -9999 -9999 -9999 -9999 -9999 -9999 -9999 -9999 -9999 -9999 -9999 -9999 -9999 -9999 -9999 -9999 -9999 -9999 -9999 -9999 -9999 -9999 -9999 -9999 -9999 -9999 -9999 -9999 -9999 -9999 -9999 -9999 -9999 -9999 -9999 -9999 -9999 -9999 -9999 -9999 -9999 -9999 -9999 -9999 -9999 -9999 -9999 -9999 -9999 -9999 -9999 -9999 -9999 -9999 -9999 -9999 -9999 -9999 -9999 -9999 -9999 -9999 -9999 -9999 -9999 -9999
27.2455 27.386 27.5211 27.6584 27.8057 27.5514 27.3004 27.0516 26.7932 26.5211 26.226 25.981 25.7016 25.3823 25.0224 24.6171 24.1727 24.442 24.6748 24.8753 25.0465 25.2007 25.3411 25.5965 25.8456 26.0917 26.3278 26.5627 26.79 26.937 27.0706 27.1922 27.2886 27.355 27.3907 27.521 27.6083 27.6603 27.6667 27.6186 27.5235 27.2129 26.8583 26.4614 26.0296 25.5573 25.0549 25.2361 25.3907 25.5141 25.6016 25.6548 25.6669 25.5295 25.3534 25.1408 24.887 24.5944 24.2658 23.6505 23.0022 22.3407 21.6577 20.9696 20.2875 19.3727 18.485 17.6413 16.8486 16.1242 15.4819 15.4463 15.5051 15.6572 15.898 16.2131 16.6021 16.9202 17.2931 17.7001 18.1203 18.5376 18.9381 18.9357 18.8825 18.7611 18.5664 18.2731 17.8765 17.6642 17.328 16.8635 16.2721 15.5389 14.6669 15.2595 15.7024 15.9843 16.1088 16.0584 15.8284 16.3953 16.7903 17.0089 17.0735 16.9877 16.7614 17.0227 17.1762 17.2443 17.2519 17.2143 17.1569 17.8419 18.5206 19.2023 19.8921 20.5775 21.2637 21.691 22.1021 22.4918 22.8569 23.1873 23.4802 23.5589 23.6033 23.6192 23.6145 23.6105 23.6052 23.4711 23.3481 23.2255 23.0998 22.9753 22.8364 22.9655 23.0667 23.1234 23.1263 23.0752 22.9544 23.0856 23.1419 23.1193 23.0236 22.8621 22.64 22.5762 22.458 22.2844 22.0661 21.8114 21.5235 21.3895 21.2402 21.0825 20.9303 20.7914 20.6724 20.4691 20.2992 20.1634 20.0479 19.9576 19.88 19.429 18.9802 18.5292 18.0571 17.5616 17.0281 16.4694 15.8773 15.2609 14.6269 13.9825 13.3344 13.1491 12.9626 12.7662 12.5484 12.3031 12.0198 11.7007 11.3471 10.9669 10.5597 10.1367 9.7059 8.8086 7.8893 6.9319 5.911 4.8063 3.6042 3.5374 3.3505 3.0536 2.6431 2.1329 1.5312 1.3822 1.1687 0.9138 0.6406 0.3641 0.1074 -0.0782 -0.2252 -0.3345 -0.3999 -0.4211 -0.4056 -0.4887 -0.5355 -0.5447 -0.5237 -0.468 -0.3788 -0.3824 -0.3457 -0.2686 -0.1502 0.014 0.2272 0.5706 0.9523 1.3594 1.7621 2.1613 2.5445 3.79 5.02 6.2407 7.4588 8.699 9.9718 10.9201 11.8969 12.8922 13.8897 14.8795 15.8417 16.3678 16.857 17.3132 17.7472 18.1625 18.5636 19.1446 19.7137 20.2685 20.8128 21.3435 21.8515 22.2821 22.6841 23.0456 23.3683 23.654 23.8914 24.0442 24.1534 24.2151 24.2252 24.2065 24.1542 23.7752 23.3714 22.9386 22.4856 22.0146 21.5266 21.5531 21.571 21.5943 21.6244 21.6681 21.7385 21.7469 21.7856 21.8693 21.9855 22.1393 22.3325 22.6739 23.038 23.4159 23.7888 24.135 24.4464 24.5189 24.5354 24.4919 24.3771 24.1895 23.9228 23.2106 22.445 21.6373 20.8087 19.9733 19.1491 17.705 16.2903 14.9041 13.5395 12.1984 10.8719 9.5139 8.1634 6.812 5.4524 4.0872 2.7144 2.2795 1.8433 1.413 1.0001 0.6146 0.2711 0.0711 -0.0792 -0.1827 -0.2403 -0.269 -0.2612 -0.3114 -0.3341 -0.3316 -0.3037 -0.2671 -0.2152 -0.2221 -0.221 -0.2089 -0.1793 -0.1506 -0.1153 -0.1126 -0.1035 -0.0891 -0.0711 -0.0535 -0.0354 -9999 -9999 -9999 -9999 -9999 -9999 -9999 -9999 -9999 -9999 -9999 -9999 -9999 -9999 -9999 -9999 -9999 -9999 -9999 -9999 -9999 -9999 -9999 -9999 -9999 -9999 -9999 -9999 -9999 -9999 -9999 -9999 -9999 -9999 -9999 -9999 -9999 -9999 -9999 -9999 -9999 -9999 -9999 -9999 -9999 -9999 -9999 -9999 -9999 -9999 -9999 -9999 -9999 -9999 -9999 -9999 -9999 -9999 -9999 -9999 -9999 -9999 -9999 -9999 -9999 -9999 -9999 -9999 -9999 -9999 -9999 -9999 -9999 -9999 -9999 -9999 -9999 -9999 -9999
27.098 27.2148 27.3222 27.415 27.4375 27.2981 27.083 26.8532 26.6123 26.3587 26.1013 25.8473 25.5781 25.2842 24.9601 24.6315 24.4196 24.4752 24.6494 24.832 25.0028 25.1733 25.3594 25.5872 25.8439 26.0992 26.3519 26.5999 26.8216 27.0032 27.1565 27.2893 27.3984 27.481 27.5481 27.6287 27.6851 27.7032 27.6741 27.5807 27.4058 27.1087 26.7302 26.3069 25.8576 25.4149 25.1026 25.0655 25.1539 25.2579 25.3382 25.3852 25.3694 25.2605 25.0893 24.8689 24.5977 24.2728 23.8488 23.2746 22.6179 21.9261 21.2145 20.5044 19.7623 18.9499 18.1333 17.3633 16.6535 16.045 15.6281 15.5104 15.5911 15.7902 16.0756 16.4297 16.8387 17.2504 17.6865 18.1484 18.6113 19.0409 19.3723 19.5021 19.4989 19.4048 19.2267 18.9613 18.6429 18.3248 17.9428 17.455 16.8687 16.231 15.782 15.8567 16.1079 16.299 16.3779 16.3468 16.3481 16.5767 16.8366 16.9862 17.0074 16.9231 16.84 16.8896 16.9651 16.9943 16.9842 16.9816 17.1181 17.5523 18.1467 18.7841 19.4401 20.1002 20.7252 21.252 21.7365 22.1949 22.6197 22.9997 23.3034 23.4846 23.5936 23.6614 23.6967 23.7215 23.7117 23.6454 23.5615 23.478 23.3865 23.3027 23.2579 23.3008 23.3727 23.421 23.4225 23.3899 23.3596 23.3938 23.4274 23.4124 23.3372 23.2207 23.0951 23.0097 22.9232 22.8037 22.647 22.4602 22.2717 22.1224 21.9838 21.8399 21.6975 21.5486 21.391 21.2039 21.0154 20.8457 20.6888 20.5273 20.3111 19.9465 19.5076 19.0521 18.5784 18.0813 17.5651 17.0281 16.4683 15.8962 15.3175 14.7479 14.2717 13.9874 13.7871 13.6048 13.4129 13.1977 12.9522 12.6802 12.3701 12.0375 11.6776 11.2783 10.7665 10.0562 9.223 8.33 7.384 6.4046 5.5516 5.088 4.742 4.3373 3.8447 3.2843 2.7341 2.3214 1.9548 1.5736 1.1864 0.8125 0.4831 0.217 0.021 -0.1278 -0.2328 -0.2949 -0.3453 -0.4149 -0.4674 -0.4971 -0.5019 -0.4817 -0.4599 -0.4559 -0.4423 -0.4049 -0.3296 -0.2156 -0.0441 0.1957 0.4809 0.795 1.1248 1.5022 2.0542 2.9603 4.0391 5.1615 6.3029 7.4711 8.6124 9.6561 10.6724 11.6973 12.7189 13.7221 14.618 15.316 15.9087 16.45 16.9681 17.4762 18.0023 18.5886 19.1954 19.7911 20.3767 20.9369 21.457 21.918 22.3244 22.6811 22.9977 23.272 23.489 23.6408 23.7366 23.7791 23.7716 23.7218 23.5733 23.2785 22.8975 22.4797 22.0539 21.6462 21.3301 21.2318 21.2386 21.2818 21.3436 21.4176 21.4915 21.5556 21.6255 21.7321 21.8714 22.0499 22.2892 22.6113 22.9778 23.3623 23.7375 24.0669 24.3136 24.4183 24.4099 24.3181 24.1334 23.8377 23.3691 22.6481 21.7692 20.8222 19.8344 18.8142 17.6917 16.3422 14.9075 13.4926 12.1079 10.7606 9.4451 8.1525 6.8851 5.6416 4.4212 3.2483 2.2615 1.6645 1.264 0.9147 0.5959 0.305 0.0684 -0.0959 -0.2031 -0.2705 -0.3061 -0.3182 -0.313 -0.3267 -0.333 -0.3187 -0.2909 -0.259 -0.2246 -0.2116 -0.2042 -0.1898 -0.1626 -0.1393 -0.1144 -0.0953 -0.0861 -0.075 -0.0571 -0.0431 -9999 -9999 -9999 -9999 -9999 -9999 -9999 -9999 -9999 -9999 -9999 -9999 -9999 -9999 -9999 -9999 -9999 -9999 -9999 -9999 -9999 -9999 -9999 -9999 -9999 -9999 -9999 -9999 -9999 -9999 -9999 -9999 -9999 -9999 -9999 -9999 -9999 -9999 -9999 -9999 -9999 -9999 -9999 -9999 -9999 -9999 -9999 -9999 -9999 -9999 -9999 -9999 -9999 -9999 -9999 -9999 -9999 -9999 -9999 -9999 -9999 -9999 -9999 -9999 -9999 -9999 -9999 -9999 -9999 -9999 -9999 -9999 -9999 -9999 -9999 -9999 -9999 -9999 -9999 -9999
26.9103 26.9863 27.0465 27.0821 27.0555 26.954 26.7965 26.6105 26.4116 26.2027 25.9809 25.7518 25.5112 25.2605 25.0047 24.7807 24.6441 24.6407 24.7357 24.8705 25.023 25.1898 25.3794 25.6065 25.8522 26.1111 26.3723 26.6238 26.8511 27.0573 27.2335 27.3904 27.5207 27.6207 27.6952 27.7505 27.7742 27.7592 27.6892 27.5484 27.3296 27.0199 26.6331 26.2034 25.7651 25.3682 25.0916 24.9808 24.9893 25.0453 25.1021 25.1256 25.0893 24.9824 24.8025 24.5706 24.279 23.9141 23.4463 22.866 22.1928 21.4799 20.7384 19.9959 19.2501 18.5059 17.7791 17.1044 16.4994 16.0166 15.7101 15.6217 15.7142 15.9405 16.2522 16.6375 17.0717 17.5459 18.0484 18.5712 19.0726 19.5275 19.8703 20.071 20.1413 20.1097 19.9875 19.7843 19.5116 19.1787 18.7742 18.3052 17.7879 17.2901 16.9484 16.851 16.8986 16.978 17.0047 16.9984 17.0166 17.1062 17.2094 17.2594 17.2257 17.139 17.0506 17.0032 16.9803 16.9532 16.9212 16.9396 17.085 17.4128 17.8829 18.4385 19.0292 19.6336 20.2314 20.8047 21.3542 21.8812 22.3767 22.8079 23.155 23.4023 23.5679 23.6794 23.7503 23.794 23.8102 23.7968 23.7647 23.7282 23.6914 23.6683 23.67 23.7036 23.7543 23.7925 23.7999 23.7934 23.7912 23.8013 23.8089 23.7889 23.7264 23.6464 23.5661 23.5037 23.4437 23.3708 23.2672 23.1438 23.0069 22.8669 22.7221 22.5697 22.4129 22.2438 22.0585 21.8562 21.6402 21.4243 21.2123 20.9846 20.7064 20.3561 19.9462 19.5057 19.0465 18.5697 18.0791 17.5737 17.0565 16.5385 16.026 15.5473 15.1476 14.8567 14.6424 14.4643 14.2883 14.0978 13.8851 13.6466 13.3781 13.0815 12.749 12.3662 11.8883 11.2932 10.5987 9.8389 9.0406 8.2477 7.5238 6.9338 6.4096 5.8662 5.2741 4.6542 4.0394 3.4642 2.9156 2.3709 1.8381 1.3451 0.9207 0.5839 0.3318 0.1373 -0.0064 -0.1164 -0.2058 -0.2831 -0.3462 -0.3937 -0.4165 -0.4341 -0.4516 -0.4652 -0.4736 -0.4705 -0.4233 -0.3458 -0.2326 -0.0652 0.1424 0.3835 0.6793 1.0582 1.5856 2.3201 3.2075 4.1703 5.1848 6.2302 7.2866 8.3341 9.3896 10.4482 11.4935 12.4997 13.414 14.2005 14.8955 15.5345 16.1491 16.7556 17.3677 17.9915 18.6289 19.261 19.8792 20.4726 21.0134 21.4898 21.9013 22.2548 22.5652 22.8317 23.0358 23.1801 23.2566 23.2756 23.242 23.155 22.9805 22.7169 22.3785 22.0074 21.6295 21.2964 21.0508 20.9371 20.9185 20.9656 21.0354 21.1238 21.2153 21.3102 21.4095 21.54 21.6969 21.8993 22.1579 22.483 22.8499 23.2357 23.6104 23.925 24.1393 24.2302 24.1939 24.0506 23.7926 23.3865 22.7904 21.973 20.9764 19.8707 18.7028 17.4848 16.1992 14.8295 13.4115 12.0059 10.6294 9.3009 8.0327 6.8284 5.6812 4.587 3.5496 2.5993 1.815 1.2516 0.8563 0.5474 0.2976 0.0858 -0.0862 -0.2069 -0.286 -0.336 -0.3506 -0.3496 -0.3444 -0.3387 -0.3319 -0.319 -0.2809 -0.251 -0.224 -0.2054 -0.1929 -0.1766 -0.146 -0.125 -0.1053 -0.0871 -0.0743 -0.0589 -0.0446 -0.0303 -9999 -9999 -9999 -9999 -9999 -9999 -9999 -9999 -9999 -9999 -9999 -9999 -9999 -9999 -9999 -9999 -9999 -9999 -9999 -9999 -9999 -9999 -9999 -9999 -9999 -9999 -9999 -9999 -9999 -9999 -9999 -9999 -9999 -9999 -9999 -9999 -9999 -9999 -9999 -9999 -9999 -9999 -9999 -9999 -9999 -9999 -9999 -9999 -9999 -9999 -9999 -9999 -9999 -9999 -9999 -9999 -9999 -9999 -9999 -9999 -9999 -9999 -9999 -9999 -9999 -9999 -9999 -9999 -9999 -9999 -9999 -9999 -9999 -9999 -9999 -9999 -9999 -9999 -9999 -9999
26.6847 26.7096 26.7177 26.7059 26.6595 26.5765 26.4627 26.331 26.1852 26.0295 25.8552 25.6659 25.4645 25.269 25.0818 24.9335 24.8417 24.8226 24.8608 24.9476 25.068 25.215 25.3971 25.617 25.8602 26.1192 26.3848 26.6411 26.8812 27.1008 27.3005 27.4792 27.6325 27.7522 27.8337 27.8693 27.8647 27.8143 27.7104 27.5411 27.2935 26.9638 26.5644 26.1258 25.6897 25.3001 25.0194 24.8737 24.8394 24.8565 24.8852 24.8869 24.83 24.7005 24.506 24.2538 23.9446 23.559 23.0699 22.4621 21.762 21.0117 20.2402 19.4796 18.7528 18.0678 17.435 16.8618 16.3613 15.9759 15.7535 15.7166 15.8461 16.1007 16.4367 16.8388 17.3039 17.8263 18.3897 18.9734 19.5307 20.0322 20.4194 20.6741 20.809 20.8439 20.8023 20.6748 20.4575 20.1416 19.7466 19.298 18.8525 18.4461 18.1473 17.9686 17.8959 17.8664 17.8525 17.8332 17.8213 17.814 17.7952 17.7427 17.6462 17.5159 17.385 17.2658 17.1624 17.0633 16.9846 16.9706 17.0722 17.3185 17.6991 18.1544 18.6615 19.2049 19.7786 20.3776 20.9936 21.5893 22.1501 22.6442 23.0448 23.3406 23.549 23.689 23.7849 23.8495 23.8973 23.9267 23.946 23.9691 23.9957 24.0305 24.0714 24.1153 24.1593 24.1986 24.2213 24.2349 24.2419 24.2443 24.2375 24.2097 24.1575 24.0975 24.0436 24.0082 23.9836 23.9505 23.8998 23.8295 23.7276 23.5927 23.433 23.2597 23.0821 22.8896 22.6772 22.4429 22.1864 21.9257 21.6606 21.3807 21.0697 20.7171 20.3236 19.9086 19.4737 19.0257 18.5693 18.1011 17.6261 17.1665 16.7181 16.3081 15.9662 15.6935 15.4809 15.3137 15.1568 14.991 14.8106 14.5967 14.3534 14.0901 13.797 13.4506 13.0408 12.5462 11.9848 11.3876 10.7755 10.1412 9.507 8.8608 8.2015 7.5331 6.8477 6.1401 5.4296 4.7143 3.9909 3.277 2.5841 1.9478 1.4122 1.01 0.7139 0.4864 0.3009 0.1497 0.0214 -0.0723 -0.1463 -0.2045 -0.2532 -0.3034 -0.3554 -0.3958 -0.4293 -0.4504 -0.44 -0.4026 -0.3386 -0.2338 -0.094 0.094 0.3464 0.6854 1.1448 1.7464 2.4628 3.2599 4.1149 5.0265 5.991 7.0153 8.0911 9.1822 10.2543 11.2869 12.2299 13.0749 13.8428 14.5631 15.267 15.9666 16.6526 17.3195 17.9817 18.643 19.3034 19.9402 20.5145 20.998 21.404 21.7471 22.0559 22.3242 22.5263 22.6527 22.7092 22.7052 22.6513 22.5481 22.371 22.1204 21.8192 21.4896 21.1649 20.8878 20.6893 20.584 20.5653 20.6124 20.6934 20.7966 20.9091 21.0208 21.1427 21.2829 21.4516 21.6643 21.9329 22.2614 22.6368 23.0295 23.4092 23.7211 23.9182 23.976 23.894 23.6951 23.3765 22.8937 22.1952 21.2535 20.1033 18.8212 17.4698 16.0792 14.6735 13.2677 11.8672 10.4836 9.1308 7.8352 6.6318 5.5389 4.5444 3.6241 2.7736 2.0124 1.3793 0.8965 0.5425 0.2827 0.0831 -0.0701 -0.1916 -0.2765 -0.3388 -0.3669 -0.3678 -0.3585 -0.3465 -0.3319 -0.3243 -0.3073 -0.2698 -0.2364 -0.2127 -0.1926 -0.174 -0.1585 -0.1343 -0.1113 -0.0909 -0.0746 -0.0569 -0.0459 -0.0347 -9999 -9999 -9999 -9999 -9999 -9999 -9999 -9999 -9999 -9999 -9999 -9999 -9999 -9999 -9999 -9999 -9999 -9999 -9999 -9999 -9999 -9999 -9999 -9999 -9999 -9999 -9999 -9999 -9999 -9999 -9999 -9999 -9999 -9999 -9999 -9999 -9999 -9999 -9999 -9999 -9999 -9999 -9999 -9999 -9999 -9999 -9999 -9999 -9999 -9999 -9999 -9999 -9999 -9999 -9999 -9999 -9999 -9999 -9999 -9999 -9999 -9999 -9999 -9999 -9999 -9999 -9999 -9999 -9999 -9999 -9999 -9999 -9999 -9999 -9999 -9999 -9999 -9999 -9999 -9999 -9999
26.4255 26.3939 26.3524 26.2996 26.2391 26.172 26.0992 26.0216 25.9359 25.8392 25.7218 25.5739 25.4136 25.2678 25.147 25.0605 25.007 24.9776 24.9807 25.0212 25.1082 25.232 25.4011 25.6121 25.8562 26.1161 26.3818 26.6462 26.9007 27.1315 27.3446 27.5463 27.7219 27.8668 27.9589 27.9765 27.9351 27.8557 27.7281 27.5459 27.286 26.935 26.5128 26.0576 25.6025 25.1918 24.8852 24.7233 24.6717 24.6676 24.6757 24.6608 24.5809 24.4156 24.1831 23.9028 23.5868 23.2101 22.7191 22.0761 21.3263 20.5345 19.7343 18.961 18.261 17.6517 17.1241 16.6547 16.2442 15.9263 15.766 15.7994 15.9933 16.2891 16.6465 17.0547 17.538 18.0988 18.7203 19.3658 19.9933 20.5623 21.0139 21.3025 21.4702 21.5636 21.6121 21.592 21.4533 21.1552 20.7583 20.335 19.947 19.619 19.3515 19.127 18.9655 18.8604 18.8039 18.7712 18.7248 18.6313 18.5043 18.3566 18.1884 18.0096 17.8221 17.6359 17.451 17.2797 17.1308 17.0474 17.0781 17.2558 17.5531 17.9296 18.3496 18.8165 19.3575 19.9802 20.6518 21.3224 21.9543 22.5189 22.9793 23.308 23.5314 23.6852 23.7959 23.8886 23.9664 24.0362 24.1078 24.1858 24.2749 24.3762 24.4627 24.5235 24.5683 24.612 24.651 24.6854 24.7049 24.7068 24.6842 24.6519 24.6005 24.5507 24.5145 24.504 24.5119 24.5225 24.5236 24.5039 24.4322 24.2866 24.0981 23.8944 23.6899 23.4824 23.2479 22.9658 22.6635 22.3532 22.0426 21.7271 21.3955 21.0357 20.6582 20.2673 19.8607 19.4497 19.0306 18.6022 18.1768 17.7678 17.3723 17.0198 16.7206 16.4764 16.2858 16.135 15.9978 15.8656 15.7115 15.5182 15.2924 15.0545 14.8019 14.5161 14.1824 13.7827 13.3425 12.8998 12.4716 12.021 11.483 10.7969 10.0229 9.2369 8.464 7.6867 6.8876 6.0455 5.1713 4.2857 3.4199 2.6106 1.9509 1.5014 1.2005 0.9532 0.7297 0.5163 0.3448 0.235 0.1635 0.0905 0.0138 -0.0772 -0.1629 -0.2376 -0.2959 -0.3462 -0.3717 -0.3798 -0.361 -0.319 -0.2371 -0.1051 0.0938 0.3708 0.7482 1.2284 1.7935 2.4308 3.1197 3.8667 4.7193 5.7177 6.8046 7.9283 9.0372 10.0959 11.0689 11.9432 12.7418 13.5198 14.306 15.0982 15.8552 16.551 17.2206 17.9105 18.6248 19.329 19.951 20.4303 20.8069 21.1402 21.4565 21.7407 21.956 22.0599 22.0835 22.0569 21.995 21.8924 21.729 21.4887 21.2001 20.9093 20.6289 20.3973 20.236 20.1536 20.15 20.2112 20.31 20.432 20.564 20.6887 20.8191 20.9633 21.1294 21.3349 21.601 21.9332 22.3197 22.7263 23.1206 23.4532 23.6464 23.6482 23.4968 23.2352 22.8771 22.3682 21.6015 20.5148 19.1762 17.7011 16.1689 14.6214 13.1122 11.6895 10.3267 8.9787 7.6547 6.3875 5.2465 4.2918 3.4779 2.7421 2.0689 1.468 0.9634 0.5724 0.2845 0.0779 -0.0712 -0.1762 -0.2509 -0.3133 -0.355 -0.3698 -0.3599 -0.3399 -0.3172 -0.3039 -0.2934 -0.2756 -0.2411 -0.2129 -0.1887 -0.1712 -0.156 -0.144 -0.1214 -0.1031 -0.0831 -0.0666 -0.0553 -0.0442 -9999 -9999 -9999 -9999 -9999 -9999 -9999 -9999 -9999 -9999 -9999 -9999 -9999 -9999 -9999 -9999 -9999 -9999 -9999 -9999 -9999 -9999 -9999 -9999 -9999 -9999 -9999 -9999 -9999 -9999 -9999 -9999 -9999 -9999 -9999 -9999 -9999 -9999 -9999 -9999 -9999 -9999 -9999 -9999 -9999 -9999 -9999 -9999 -9999 -9999 -9999 -9999 -9999 -9999 -9999 -9999 -9999 -9999 -9999 -9999 -9999 -9999 -9999 -9999 -9999 -9999 -9999 -9999 -9999 -9999 -9999 -9999 -9999 -9999 -9999 -9999 -9999 -9999 -9999 -9999 -9999 -9999
26.1177 26.0332 25.9459 25.8607 25.7852 25.737 25.7047 25.6743 25.6456 25.6202 25.5685 25.4504 25.3207 25.2221 25.1603 25.1398 25.1355 25.0904 25.055 25.0681 25.127 25.2195 25.3688 25.5814 25.827 26.0894 26.3618 26.6357 26.8974 27.1327 27.3555 27.5685 27.7705 27.9532 28.0663 28.0524 27.9718 27.8617 27.7227 27.5501 27.2968 26.9171 26.4699 25.9908 25.5035 25.0422 24.68 24.5303 24.4907 24.4743 24.4639 24.4392 24.3446 24.1154 23.8196 23.5066 23.1883 22.853 22.4002 21.6963 20.8787 20.0505 19.2376 18.453 17.7673 17.2733 16.8787 16.5177 16.1873 15.9038 15.7692 15.9118 16.199 16.542 16.9083 17.3001 17.7677 18.3769 19.0585 19.7576 20.4482 21.1068 21.6416 21.9252 22.0925 22.2329 22.3717 22.493 22.481 22.1637 21.7295 21.3217 20.9909 20.7446 20.5299 20.2585 20.0184 19.8601 19.7787 19.7498 19.6975 19.5145 19.2812 19.0493 18.8182 18.5853 18.3464 18.098 17.8435 17.5947 17.3637 17.1763 17.1058 17.2387 17.4904 17.7922 18.1255 18.4913 18.9574 19.6248 20.3771 21.1148 21.8194 22.46 22.9793 23.3094 23.5304 23.6858 23.8129 23.9182 24.0183 24.1224 24.2426 24.3724 24.5241 24.6935 24.8431 24.9086 24.9534 25.0028 25.0646 25.1287 25.1725 25.1658 25.1356 25.0913 25.0409 24.9915 24.959 24.9746 25.0157 25.0597 25.1042 25.1435 25.1136 24.9322 24.688 24.4461 24.2212 24.0042 23.7597 23.4287 23.064 22.7048 22.3612 22.0189 21.6749 21.3186 20.9516 20.5805 20.2111 19.8393 19.4616 19.0747 18.6895 18.3262 17.9844 17.6793 17.4152 17.2018 17.0324 16.9018 16.796 16.7022 16.5803 16.3875 16.1681 15.9523 15.7426 15.5315 15.2824 14.9565 14.6088 14.3029 14.049 13.8217 13.4483 12.6797 11.7587 10.8749 10.0421 9.2325 8.3925 7.4322 6.4141 5.3867 4.3524 3.3407 2.5121 2.0832 1.8266 1.576 1.3045 1.0084 0.7633 0.657 0.5979 0.5142 0.4038 0.2601 0.1182 0.0167 -0.0688 -0.1519 -0.2251 -0.2789 -0.3093 -0.3282 -0.3098 -0.2386 -0.0996 0.1081 0.399 0.7702 1.2103 1.6966 2.2167 2.7729 3.468 4.46 5.5827 6.7198 7.8412 8.9315 9.9378 10.7901 11.5767 12.3806 13.2275 14.1238 14.9758 15.656 16.2979 17.0075 17.7851 18.6016 19.3188 19.7551 20.0699 20.3849 20.7184 21.0536 21.3127 21.3816 21.3592 21.3101 21.2519 21.1767 21.0445 20.8077 20.5241 20.2516 20.005 19.8139 19.6871 19.6377 19.6576 19.7401 19.8642 20.0175 20.1729 20.3079 20.4348 20.5712 20.7296 20.9133 21.1531 21.4949 21.8911 22.3051 22.7191 23.0969 23.3131 23.2121 22.9481 22.6195 22.2392 21.7696 21.0194 19.7319 18.1675 16.5146 14.8216 13.1206 11.5135 10.132 8.8432 7.557 6.2635 4.9935 3.8816 3.1153 2.5143 1.9649 1.4478 0.9774 0.5817 0.2851 0.0695 -0.0808 -0.1815 -0.2413 -0.2797 -0.3282 -0.3565 -0.3618 -0.3428 -0.3132 -0.2807 -0.2733 -0.265 -0.2474 -0.2138 -0.1864 -0.159 -0.1484 -0.1364 -0.1212 -0.1047 -0.0812 -0.064 -0.0514 -0.0429 -0.0339 -9999 -9999 -9999 -9999 -9999 -9999 -9999 -9999 -9999 -9999 -9999 -9999 -9999 -9999 -9999 -9999 -9999 -9999 -9999 -9999 -9999 -9999 -9999 -9999 -9999 -9999 -9999 -9999 -9999 -9999 -9999 -9999 -9999 -9999 -9999 -9999 -9999 -9999 -9999 -9999 -9999 -9999 -9999 -9999 -9999 -9999 -9999 -9999 -9999 -9999 -9999 -9999 -9999 -9999 -9999 -9999 -9999 -9999 -9999 -9999 -9999 -9999 -9999 -9999 -9999 -9999 -9999 -9999 -9999 -9999 -9999 -9999 -9999 -9999 -9999 -9999 -9999 -9999 -9999 -9999 -9999 -9999
25.7403 25.6137 25.4989 25.3889 25.2844 25.2791 25.2788 25.2829 25.2999 25.3335 25.3875 25.2536 25.1553 25.0982 25.0841 25.1247 25.2225 25.1107 25.059 25.0586 25.1033 25.187 25.2934 25.5248 25.7754 26.0388 26.3141 26.5883 26.8655 27.091 27.3116 27.5323 27.7506 27.9546 28.1556 28.0516 27.9326 27.806 27.6637 27.5007 27.315 26.8686 26.4037 25.9219 25.4256 24.9171 24.4016 24.3636 24.3218 24.2725 24.22 24.1657 24.1084 23.7406 23.3753 23.0211 22.6891 22.3815 22.1126 21.2252 20.3718 19.553 18.7704 18.0078 17.2739 17.0003 16.742 16.492 16.2578 16.0154 15.7781 16.1529 16.5246 16.8937 17.2626 17.6267 17.9922 18.701 19.4113 20.1271 20.8412 21.5612 22.2872 22.4305 22.582 22.7621 22.9702 23.2149 23.507 22.9883 22.5352 22.1613 21.8828 21.712 21.6548 21.2484 20.959 20.77 20.6751 20.6591 20.7049 20.3533 20.0447 19.7589 19.4842 19.2109 18.932 18.6216 18.3071 17.9939 17.6878 17.4019 17.1464 17.3213 17.5256 17.7593 18.0186 18.29 18.5678 19.3857 20.1876 20.9637 21.7128 22.4102 23.0503 23.3055 23.5103 23.6662 23.8074 23.9279 24.0402 24.177 24.331 24.5011 24.7056 24.9352 25.1996 25.2226 25.273 25.3455 25.4343 25.5291 25.6287 25.5991 25.5676 25.5272 25.4784 25.4248 25.3649 25.4246 25.4847 25.5429 25.6053 25.6833 25.7762 25.4585 25.1637 24.8871 24.6383 24.4212 24.2273 23.7887 23.376 22.9792 22.6098 22.2566 21.9171 21.5576 21.205 20.8579 20.5199 20.1886 19.8665 19.5066 19.1644 18.8447 18.5472 18.2808 18.0472 17.8636 17.717 17.6055 17.5187 17.4548 17.405 17.1685 16.9496 16.752 16.5765 16.427 16.3063 15.9832 15.7101 15.5045 15.3756 15.3354 15.3886 14.2852 13.276 12.3539 11.4971 10.6896 9.9232 8.8054 7.7003 6.5894 5.4551 4.2921 3.0922 2.9191 2.6931 2.4145 2.0865 1.71 1.2882 1.2703 1.206 1.0946 0.9444 0.7445 0.5029 0.3993 0.2699 0.1284 -0.0004 -0.1105 -0.1854 -0.2807 -0.3225 -0.3093 -0.2275 -0.0899 0.1054 0.3941 0.7284 1.0955 1.4772 1.8589 2.2322 3.3659 4.4824 5.5852 6.6703 7.7533 8.8455 9.5566 10.3055 11.1056 11.9741 12.9399 14.016 14.5186 15.1411 15.873 16.7027 17.6237 18.6136 18.836 19.1123 19.4279 19.786 20.183 20.5959 20.5372 20.4901 20.442 20.3982 20.3578 20.3133 20.0309 19.7567 19.5118 19.2957 19.1371 19.0434 19.0301 19.0827 19.1974 19.3515 19.5343 19.7394 19.8605 19.9861 20.1194 20.2671 20.4221 20.588 20.9662 21.3512 21.7459 22.1451 22.5385 22.9163 22.5544 22.1719 21.7732 21.3564 20.9169 20.4538 18.739 17.005 15.2479 13.471 11.6758 9.8679 8.6933 7.5009 6.2883 5.0536 3.8009 2.5347 2.1352 1.7278 1.3243 0.933 0.5684 0.2429 0.0482 -0.1005 -0.2022 -0.2624 -0.2839 -0.2735 -0.324 -0.3524 -0.3521 -0.3234 -0.2834 -0.2293 -0.2378 -0.2392 -0.2247 -0.1909 -0.1617 -0.1252 -0.1241 -0.1183 -0.1022 -0.0854 -0.0658 -0.0444 -0.035 -0.0289 -9999 -9999 -9999 -9999 -9999 -9999 -9999 -9999 -9999 -9999 -9999 -9999 -9999 -9999 -9999 -9999 -9999 -9999 -9999 -9999 -9999 -9999 -9999 -9999 -9999 -9999 -9999 -9999 -9999 -9999 -9999 -9999 -9999 -9999 -9999 -9999 -9999 -9999 -9999 -9999 -9999 -9999 -9999 -9999 -9999 -9999 -9999 -9999 -9999 -9999 -9999 -9999 -9999 -9999 -9999 -9999 -9999 -9999 -9999 -9999 -9999 -9999 -9999 -9999 -9999 -9999 -9999 -9999 -9999 -9999 -9999 -9999 -9999 -9999 -9999 -9999 -9999 -9999 -9999 -9999 -9999 -9999 -9999
25.2679 25.1314 25.0082 24.9024 24.8282 24.8079 24.8157 24.8418 24.8831 24.9312 24.9602 24.9318 24.8888 24.8741 24.8931 24.9486 24.9951 24.9817 24.9655 24.9796 25.0347 25.1313 25.2659 25.4625 25.7 25.9525 26.2193 26.4865 26.7461 26.9863 27.2079 27.4268 27.6337 27.8115 27.9249 27.9018 27.8003 27.6725 27.5196 27.3343 27.089 26.7265 26.2961 25.8467 25.3837 24.9205 24.5332 24.3223 24.1829 24.0531 23.9222 23.7744 23.5603 23.2216 22.8244 22.4226 22.0385 21.6573 21.1988 20.5251 19.7747 19.0415 18.3532 17.7184 17.2116 16.9202 16.7463 16.6118 16.5004 16.4049 16.4193 16.6631 17.0099 17.3701 17.7345 18.1086 18.5506 19.1371 19.7886 20.463 21.1375 21.7953 22.3466 22.6719 22.8929 23.1109 23.3384 23.5605 23.6469 23.4321 23.1035 22.8016 22.5701 22.4044 22.2381 21.9824 21.7333 21.5501 21.4367 21.369 21.2689 21.0303 20.7374 20.4459 20.1533 19.8543 19.5364 19.1903 18.8279 18.4618 18.107 17.7961 17.5897 17.5774 17.6812 17.8409 18.049 18.3135 18.7156 19.3578 20.1116 20.8751 21.6199 22.3017 22.8644 23.2225 23.461 23.6322 23.7763 23.9035 24.0427 24.1933 24.3712 24.5693 24.7955 25.0358 25.2586 25.3975 25.5067 25.6217 25.7425 25.8572 25.9428 25.9704 25.9627 25.9405 25.9056 25.8701 25.8478 25.8714 25.9135 25.959 26.0012 26.0359 25.9881 25.7761 25.4934 25.2093 24.9347 24.6718 24.3762 23.9918 23.5801 23.1772 22.797 22.434 22.0859 21.7452 21.4153 21.0991 20.7945 20.4943 20.1941 19.8909 19.5945 19.32 19.0657 18.8332 18.6307 18.4679 18.3339 18.2332 18.1536 18.0759 17.9766 17.8063 17.6113 17.4306 17.2728 17.1329 16.9871 16.7886 16.5958 16.4515 16.3637 16.2887 16.0384 15.3502 14.4791 13.6109 12.7767 11.961 11.089 10.0817 8.9961 7.8913 6.7736 5.6769 4.7528 4.2232 3.8557 3.4926 3.1071 2.7093 2.3616 2.1615 2.0131 1.8461 1.6487 1.4103 1.161 0.9392 0.7253 0.502 0.29 0.0997 -0.0622 -0.1956 -0.2841 -0.3237 -0.2981 -0.2201 -0.0821 0.1181 0.3627 0.6387 0.9431 1.2901 1.7903 2.5999 3.5536 4.5349 5.5121 6.488 7.397 8.1709 8.9117 9.6819 10.5108 11.4125 12.2877 13.0029 13.7098 14.4872 15.3383 16.2287 17.0117 17.5045 17.8825 18.2495 18.635 19.0215 19.3206 19.431 19.4478 19.4344 19.415 19.382 19.2936 19.1094 18.8861 18.6766 18.4957 18.374 18.3143 18.3371 18.4262 18.5743 18.7613 18.9699 19.1663 19.3306 19.4719 19.6057 19.7512 19.9052 20.1031 20.3858 20.7063 21.0339 21.3551 21.6254 21.7341 21.5172 21.1203 20.6606 20.1522 19.5541 18.6872 17.2911 15.6293 13.8975 12.1472 10.4204 8.828 7.5159 6.3419 5.2036 4.0849 3.0039 2.0912 1.538 1.1637 0.8383 0.5395 0.2669 0.0397 -0.1197 -0.2244 -0.2897 -0.3218 -0.3304 -0.3274 -0.3403 -0.3502 -0.3392 -0.3101 -0.277 -0.2401 -0.2278 -0.2219 -0.2059 -0.1754 -0.1513 -0.1265 -0.1098 -0.102 -0.0899 -0.0738 -0.0554 -0.0373 -0.0267 -9999 -9999 -9999 -9999 -9999 -9999 -9999 -9999 -9999 -9999 -9999 -9999 -9999 -9999 -9999 -9999 -9999 -9999 -9999 -9999 -9999 -9999 -9999 -9999 -9999 -9999 -9999 -9999 -9999 -9999 -9999 -9999 -9999 -9999 -9999 -9999 -9999 -9999 -9999 -9999 -9999 -9999 -9999 -9999 -9999 -9999 -9999 -9999 -9999 -9999 -9999 -9999 -9999 -9999 -9999 -9999 -9999 -9999 -9999 -9999 -9999 -9999 -9999 -9999 -9999 -9999 -9999 -9999 -9999 -9999 -9999 -9999 -9999 -9999 -9999 -9999 -9999 -9999 -9999 -9999 -9999 -9999 -9999 -9999
24.7206 24.5867 24.4715 24.3772 24.3159 24.2974 24.3097 24.3445 24.3994 24.4578 24.5008 24.52 24.5304 24.5524 24.6005 24.6644 24.7197 24.7547 24.7822 24.8286 24.9097 25.024 25.1776 25.3669 25.5826 25.822 26.0766 26.3328 26.5823 26.8192 27.04 27.2502 27.4376 27.5854 27.6664 27.6569 27.5785 27.4573 27.2974 27.0982 26.8441 26.5195 26.1456 25.75 25.3472 24.9502 24.5924 24.2995 24.0479 23.8095 23.5768 23.3193 23.0081 22.6245 22.1882 21.7293 21.2761 20.8162 20.3103 19.7358 19.1253 18.5254 17.9699 17.4918 17.136 16.9375 16.8611 16.8519 16.8829 16.9519 17.0871 17.3208 17.6205 17.9492 18.2948 18.6696 19.0969 19.6094 20.1771 20.7702 21.3646 21.9261 22.4058 22.771 23.0531 23.3045 23.5283 23.7011 23.7614 23.6658 23.4723 23.2649 23.0726 22.9065 22.7402 22.5503 22.3576 22.1994 22.0713 21.9594 21.8202 21.6156 21.3635 21.0906 20.8095 20.5063 20.1693 19.7904 19.3861 18.9734 18.5862 18.2571 18.0246 17.9179 17.9197 18.0035 18.1713 18.437 18.8434 19.4146 20.1035 20.8357 21.5577 22.2111 22.7483 23.1324 23.3929 23.5771 23.7248 23.8565 23.9996 24.1625 24.3519 24.5723 24.8157 25.061 25.2902 25.4868 25.6594 25.8274 25.9962 26.1358 26.2424 26.3013 26.3221 26.3203 26.3088 26.2908 26.2809 26.2859 26.2998 26.314 26.3078 26.2759 26.1742 25.9815 25.7201 25.4287 25.1256 24.8143 24.4794 24.1074 23.7115 23.311 22.9257 22.5576 22.2134 21.8935 21.5961 21.3123 21.0377 20.7647 20.4985 20.2366 19.9855 19.7531 19.5342 19.3316 19.1554 19.0056 18.8827 18.7845 18.6984 18.6079 18.4926 18.3377 18.1599 17.9859 17.83 17.6899 17.5506 17.4072 17.2748 17.17 17.0731 16.937 16.6455 16.1201 15.4299 14.6735 13.8951 13.1038 12.2482 11.3115 10.306 9.2672 8.2301 7.2546 6.4106 5.7601 5.2428 4.7706 4.3171 3.8909 3.5175 3.226 2.9847 2.7495 2.4994 2.2191 1.9172 1.6057 1.2837 0.9569 0.6478 0.3637 0.1229 -0.0671 -0.2028 -0.2879 -0.3056 -0.2743 -0.1964 -0.0664 0.1065 0.3148 0.5772 0.9081 1.3706 2.0076 2.7659 3.5754 4.4029 5.2219 6.002 6.7311 7.4395 8.1558 8.9066 9.6952 10.4939 11.2749 12.0676 12.9001 13.7602 14.6065 15.3583 15.957 16.4483 16.8871 17.3022 17.6861 17.9853 18.171 18.268 18.3125 18.3227 18.3036 18.2308 18.0971 17.9269 17.7621 17.6082 17.5131 17.4896 17.5486 17.6835 17.8798 18.102 18.3348 18.5492 18.7338 18.8902 19.0338 19.1715 19.322 19.4997 19.7123 19.9465 20.183 20.39 20.5191 20.4944 20.259 19.8481 19.3279 18.7096 17.9512 16.9531 15.6502 14.1198 12.4837 10.8298 9.2218 7.748 6.4641 5.3267 4.2808 3.3033 2.4124 1.676 1.1478 0.7762 0.4865 0.2516 0.0513 -0.1102 -0.2269 -0.3028 -0.3499 -0.3647 -0.3619 -0.3534 -0.348 -0.3444 -0.3331 -0.2996 -0.2687 -0.2411 -0.2233 -0.2126 -0.1949 -0.1588 -0.1381 -0.1193 -0.1039 -0.093 -0.0747 -0.0598 -0.0463 -0.0326 -0.019 -9999 -9999 -9999 -9999 -9999 -9999 -9999 -9999 -9999 -9999 -9999 -9999 -9999 -9999 -9999 -9999 -9999 -9999 -9999 -9999 -9999 -9999 -9999 -9999 -9999 -9999 -9999 -9999 -9999 -9999 -9999 -9999 -9999 -9999 -9999 -9999 -9999 -9999 -9999 -9999 -9999 -9999 -9999 -9999 -9999 -9999 -9999 -9999 -9999 -9999 -9999 -9999 -9999 -9999 -9999 -9999 -9999 -9999 -9999 -9999 -9999 -9999 -9999 -9999 -9999 -9999 -9999 -9999 -9999 -9999 -9999 -9999 -9999 -9999 -9999 -9999 -9999 -9999 -9999 -9999 -9999 -9999 -9999 -9999
24.1207 23.993 23.8836 23.8022 23.752 23.7362 23.7542 23.7974 23.8654 23.9363 24.0032 24.0549 24.0979 24.1531 24.2327 24.3168 24.3981 24.4637 24.5242 24.6026 24.7176 24.8546 25.0211 25.2053 25.4071 25.6333 25.8769 26.127 26.3702 26.5981 26.811 27.0078 27.1796 27.3119 27.379 27.3701 27.2965 27.1728 27.0133 26.8119 26.5653 26.2711 25.9478 25.6049 25.2657 24.9295 24.5844 24.2284 23.8761 23.5213 23.1831 22.8338 22.4452 21.9986 21.5047 20.9846 20.4664 19.9501 19.4433 18.9529 18.4746 18.0192 17.6103 17.2712 17.0534 16.9812 17.0339 17.1676 17.3541 17.5632 17.7925 18.0393 18.3036 18.5853 18.897 19.2383 19.6276 20.0702 20.5583 21.0598 21.5624 22.0357 22.4601 22.822 23.1324 23.3952 23.6175 23.7736 23.8468 23.8183 23.7217 23.5838 23.4435 23.3044 23.1651 23.0152 22.8676 22.7359 22.6137 22.4916 22.3451 22.1596 21.9355 21.6939 21.4385 21.1531 20.8092 20.4003 19.9504 19.4945 19.0724 18.7185 18.4449 18.2676 18.1891 18.2047 18.3233 18.5571 18.9377 19.4707 20.1223 20.8271 21.5373 22.1822 22.7093 23.0905 23.343 23.5103 23.6432 23.7714 23.9134 24.086 24.2908 24.5208 24.7709 25.0351 25.2903 25.5324 25.7679 25.9867 26.1954 26.3806 26.5198 26.6053 26.652 26.6663 26.6704 26.666 26.6583 26.6458 26.6336 26.6043 26.557 26.4762 26.3421 26.1376 25.8774 25.5738 25.2511 24.9053 24.547 24.179 23.7967 23.402 23.0187 22.6451 22.3079 22.0152 21.7559 21.5086 21.2671 21.0212 20.7837 20.5561 20.3446 20.1463 19.9587 19.7811 19.6247 19.4831 19.3616 19.2636 19.173 19.0756 18.953 18.793 18.6068 18.4273 18.2663 18.1217 17.9909 17.8746 17.7712 17.6923 17.6105 17.4652 17.2027 16.7767 16.2115 15.5771 14.9009 14.1738 13.3941 12.5288 11.6017 10.6621 9.7342 8.849 8.0545 7.3552 6.7333 6.1699 5.6471 5.1651 4.7429 4.3797 4.0606 3.765 3.4646 3.1366 2.7662 2.3632 1.9298 1.4849 1.0637 0.6804 0.354 0.1075 -0.0691 -0.1921 -0.2488 -0.2645 -0.2384 -0.166 -0.0531 0.1006 0.3121 0.5963 0.982 1.4819 2.0697 2.7095 3.3677 4.027 4.6777 5.3202 5.9612 6.5965 7.243 7.925 8.6558 9.4552 10.3153 11.1959 12.0783 12.9215 13.6782 14.3345 14.9027 15.4021 15.863 16.2687 16.6019 16.8434 17.0062 17.1061 17.1634 17.1741 17.1342 17.0412 16.9114 16.7759 16.6449 16.5682 16.5752 16.6714 16.8607 17.1089 17.3802 17.6533 17.895 18.0868 18.2463 18.3812 18.5114 18.6443 18.7834 18.9267 19.0703 19.2032 19.306 19.3244 19.2027 18.9055 18.4439 17.8506 17.146 16.298 15.2574 14.0044 12.5746 11.0451 9.4929 7.9951 6.6281 5.4337 4.3959 3.4687 2.6317 1.8961 1.285 0.8228 0.4853 0.2384 0.0516 -0.0946 -0.2098 -0.291 -0.349 -0.3752 -0.3777 -0.3664 -0.3526 -0.3372 -0.3286 -0.3147 -0.2835 -0.2491 -0.2256 -0.2054 -0.193 -0.1789 -0.1498 -0.1258 -0.1082 -0.0938 -0.0741 -0.0622 -0.0509 -0.0318 -0.0224 -9999 -9999 -9999 -9999 -9999 -9999 -9999 -9999 -9999 -9999 -9999 -9999 -9999 -9999 -9999 -9999 -9999 -9999 -9999 -9999 -9999 -9999 -9999 -9999 -9999 -9999 -9999 -9999 -9999 -9999 -9999 -9999 -9999 -9999 -9999 -9999 -9999 -9999 -9999 -9999 -9999 -9999 -9999 -9999 -9999 -9999 -9999 -9999 -9999 -9999 -9999 -9999 -9999 -9999 -9999 -9999 -9999 -9999 -9999 -9999 -9999 -9999 -9999 -9999 -9999 -9999 -9999 -9999 -9999 -9999 -9999 -9999 -9999 -9999 -9999 -9999 -9999 -9999 -9999 -9999 -9999 -9999 -9999 -9999 -9999
23.4778 23.35 23.2432 23.1732 23.1345 23.1208 23.1399 23.1961 23.2778 23.3761 23.4691 23.5369 23.5976 23.6758 23.7834 23.9069 24.0226 24.1099 24.1908 24.2954 24.441 24.6135 24.7986 24.979 25.1639 25.3743 25.6083 25.8597 26.1023 26.3172 26.5118 26.6979 26.8658 26.995 27.0591 27.0397 26.9561 26.8279 26.6678 26.4776 26.2445 25.9682 25.6702 25.3779 25.1054 24.8386 24.513 24.0865 23.6099 23.1473 22.7227 22.3144 21.8717 21.3609 20.799 20.2198 19.6428 19.0899 18.6012 18.2028 17.8701 17.5613 17.2786 17.0598 16.9641 17.0341 17.2427 17.5333 17.8705 18.2206 18.5397 18.7898 19.0118 19.2439 19.5074 19.8026 20.1423 20.5159 20.9187 21.333 21.7449 22.1334 22.4979 22.8453 23.1613 23.4303 23.6573 23.8184 23.9109 23.9336 23.9018 23.8223 23.7284 23.6253 23.5182 23.4059 23.2973 23.1881 23.0812 22.9673 22.8293 22.6558 22.4547 22.2466 22.032 21.7908 21.461 21.0113 20.4922 19.982 19.5211 19.1376 18.826 18.5897 18.4404 18.3928 18.4548 18.6437 18.9868 19.495 20.1294 20.8321 21.5483 22.212 22.7458 23.098 23.3035 23.4374 23.5432 23.6508 23.788 23.9687 24.1847 24.4328 24.6984 24.9761 25.262 25.5448 25.8253 26.0982 26.36 26.5931 26.7733 26.8803 26.9335 26.9596 26.978 26.9913 26.985 26.955 26.9071 26.8431 26.7591 26.652 26.4931 26.2734 25.9977 25.6806 25.3338 24.967 24.5947 24.2337 23.8677 23.4824 23.0902 22.7115 22.3762 22.1203 21.912 21.7094 21.4943 21.2725 21.0538 20.8554 20.676 20.5085 20.3404 20.1852 20.0376 19.895 19.7715 19.6693 19.5777 19.4842 19.3562 19.1728 18.9614 18.7573 18.5828 18.4352 18.3117 18.2031 18.1166 18.0604 18.0086 17.9117 17.7096 17.358 16.884 16.3517 15.7871 15.1783 14.4992 13.7177 12.8731 12.0256 11.205 10.4207 9.6754 8.9553 8.2684 7.6276 7.035 6.4874 6.0028 5.5842 5.2142 4.8659 4.5198 4.1439 3.7134 3.2053 2.6511 2.0805 1.5369 1.0362 0.6239 0.3229 0.114 -0.034 -0.1239 -0.1851 -0.2046 -0.1862 -0.1285 -0.0264 0.1293 0.3455 0.6419 1.0217 1.4595 1.9395 2.43 2.924 3.4373 3.9884 4.5457 5.0909 5.6175 6.1627 6.8102 7.6211 8.5359 9.4727 10.3834 11.2345 12.0056 12.6913 13.2989 13.8472 14.3554 14.8069 15.1869 15.4771 15.6881 15.8436 15.9532 16.0125 16.0152 15.9584 15.8563 15.7402 15.6177 15.5421 15.5629 15.7083 15.9553 16.2723 16.6022 16.9282 17.2029 17.3921 17.5251 17.6429 17.7519 17.866 17.9624 18.026 18.0699 18.1043 18.1191 18.0674 17.876 17.4949 16.9491 16.2846 15.5237 14.6425 13.6065 12.3984 11.0488 9.6115 8.1513 6.7407 5.4724 4.4079 3.5154 2.7322 2.034 1.4247 0.9227 0.5354 0.2555 0.0543 -0.0869 -0.1886 -0.2632 -0.3224 -0.3587 -0.3725 -0.3647 -0.3443 -0.3225 -0.307 -0.2925 -0.2782 -0.2486 -0.2203 -0.1967 -0.1788 -0.1639 -0.1534 -0.1255 -0.108 -0.0894 -0.0736 -0.058 -0.0487 -0.0373 -0.0226 -9999 -9999 -9999 -9999 -9999 -9999 -9999 -9999 -9999 -9999 -9999 -9999 -9999 -9999 -9999 -9999 -9999 -9999 -9999 -9999 -9999 -9999 -9999 -9999 -9999 -9999 -9999 -9999 -9999 -9999 -9999 -9999 -9999 -9999 -9999 -9999 -9999 -9999 -9999 -9999 -9999 -9999 -9999 -9999 -9999 -9999 -9999 -9999 -9999 -9999 -9999 -9999 -9999 -9999 -9999 -9999 -9999 -9999 -9999 -9999 -9999 -9999 -9999 -9999 -9999 -9999 -9999 -9999 -9999 -9999 -9999 -9999 -9999 -9999 -9999 -9999 -9999 -9999 -9999 -9999 -9999 -9999 -9999 -9999 -9999 -9999
22.7869 22.648 22.5472 22.4913 22.4664 22.4515 22.469 22.5287 22.6335 22.7691 22.8951 22.9602 23.0206 23.1134 23.2584 23.4318 23.5961 23.6862 23.7686 23.8919 24.0708 24.2902 24.5109 24.6717 24.8281 25.0256 25.2566 25.5208 25.7752 25.9667 26.1405 26.3135 26.481 26.6254 26.7034 26.6628 26.5527 26.4084 26.2526 26.079 25.865 25.5843 25.2911 25.0283 24.8191 24.6498 24.3903 23.8465 23.2218 22.656 22.1691 21.7414 21.2935 20.7145 20.0884 19.4674 18.8555 18.2624 17.7717 17.5153 17.3576 17.1977 17.032 16.8885 16.8652 17.1046 17.4878 17.9272 18.4044 18.9022 19.3273 19.5513 19.7043 19.8834 20.1019 20.351 20.6312 20.9454 21.2777 21.6104 21.938 22.2415 22.537 22.8671 23.1846 23.4562 23.6828 23.8529 23.964 24.0257 24.0368 24.0081 23.9539 23.8887 23.811 23.7334 23.6559 23.573 23.4856 23.3915 23.2706 23.0963 22.9038 22.7126 22.5412 22.3739 22.104 21.5735 20.9587 20.3868 19.8948 19.4929 19.1663 18.8766 18.6614 18.5534 18.5558 18.681 18.9674 19.4755 20.1187 20.8294 21.5671 22.2834 22.8552 23.1352 23.2627 23.3475 23.4188 23.4994 23.6193 23.8123 24.0546 24.3244 24.6068 24.9015 25.2095 25.5313 25.862 26.1851 26.5003 26.7903 27.0191 27.1305 27.1809 27.2112 27.2411 27.2676 27.2714 27.216 27.132 27.0347 26.9294 26.8049 26.6355 26.3967 26.1033 25.7705 25.4074 25.0151 24.6281 24.29 23.9563 23.5885 23.1904 22.7808 22.4254 22.2359 22.1006 21.9425 21.753 21.5348 21.3153 21.1496 20.9942 20.8371 20.6881 20.5422 20.3976 20.2455 20.1032 19.9907 19.9041 19.8252 19.7059 19.4755 19.209 18.9711 18.7762 18.6238 18.508 18.3934 18.3118 18.2794 18.2762 18.2692 18.1633 17.8497 17.4337 16.999 16.5564 16.1064 15.5676 14.8539 14.0673 13.3096 12.5958 11.9304 11.2667 10.5273 9.7831 9.0919 8.4426 7.8303 7.2783 6.8194 6.4077 6.0136 5.6187 5.209 4.734 4.1055 3.4192 2.7273 2.0603 1.4308 0.9118 0.587 0.3709 0.2043 0.0741 -0.0306 -0.0986 -0.1265 -0.1193 -0.0702 0.0204 0.1606 0.3646 0.6356 0.9529 1.2895 1.6239 1.9471 2.307 2.7854 3.2803 3.7247 4.1131 4.474 4.9714 5.8357 6.8348 7.8107 8.7349 9.5904 10.3716 11.0644 11.6851 12.2615 12.8053 13.3154 13.7576 14.0855 14.3346 14.5468 14.7167 14.8363 14.8921 14.8681 14.7853 14.6728 14.5523 14.4545 14.4577 14.6671 14.9896 15.3606 15.7581 16.1571 16.4787 16.6347 16.7157 16.7931 16.8794 16.9828 17.0443 17.007 16.9362 16.8735 16.8158 16.7367 16.52 16.0232 15.3741 14.65 13.8625 12.996 12.0045 10.8434 9.5671 8.2221 6.8445 5.4899 4.2883 3.4052 2.7016 2.0744 1.5049 1.0016 0.5862 0.2798 0.0658 -0.085 -0.1833 -0.2454 -0.284 -0.327 -0.3554 -0.3619 -0.3446 -0.3161 -0.2836 -0.2718 -0.2622 -0.2478 -0.2211 -0.1933 -0.1661 -0.1561 -0.1448 -0.1289 -0.1102 -0.0896 -0.0719 -0.0575 -0.0467 -0.0369 -0.0258 -0.0173 -9999 -9999 -9999 -9999 -9999 -9999 -9999 -9999 -9999 -9999 -9999 -9999 -9999 -9999 -9999 -9999 -9999 -9999 -9999 -9999 -9999 -9999 -9999 -9999 -9999 -9999 -9999 -9999 -9999 -9999 -9999 -9999 -9999 -9999 -9999 -9999 -9999 -9999 -9999 -9999 -9999 -9999 -9999 -9999 -9999 -9999 -9999 -9999 -9999 -9999 -9999 -9999 -9999 -9999 -9999 -9999 -9999 -9999 -9999 -9999 -9999 -9999 -9999 -9999 -9999 -9999 -9999 -9999 -9999 -9999 -9999 -9999 -9999 -9999 -9999 -9999 -9999 -9999 -9999 -9999 -9999 -9999 -9999 -9999 -9999 -9999
22.0344 21.8889 21.7921 21.7475 21.7535 21.722 21.7393 21.8025 21.9166 22.0808 22.2888 22.2968 22.3535 22.4604 22.6271 22.8483 23.1195 23.1456 23.2269 23.3724 23.581 23.841 24.1592 24.2394 24.3736 24.5631 24.7975 25.0704 25.3847 25.5178 25.6708 25.8375 26.0094 26.1711 26.3172 26.2023 26.0653 25.9082 25.7445 25.5807 25.4211 25.077 24.7706 24.5114 24.3203 24.2201 24.2198 23.3661 22.6232 21.9908 21.4638 21.0387 20.704 19.9988 19.3527 18.7458 18.1571 17.5686 16.9612 17.0037 17.009 16.9824 16.9287 16.8562 16.7655 17.282 17.8015 18.3402 18.9078 19.5144 20.1623 20.2173 20.3209 20.47 20.6556 20.8719 21.0987 21.3689 21.637 21.899 22.1507 22.374 22.565 22.915 23.2228 23.488 23.7108 23.8818 24.011 24.0961 24.14 24.1505 24.1331 24.1005 24.0518 24.0082 23.9559 23.8939 23.8256 23.7474 23.66 23.451 23.2461 23.0558 22.8995 22.7869 22.7317 21.9611 21.2686 20.6622 20.1527 19.7475 19.4535 19.0832 18.826 18.6808 18.6416 18.7105 18.8827 19.4511 20.0947 20.7995 21.5357 22.2912 23.0451 23.1114 23.1668 23.2177 23.2696 23.3311 23.4073 23.6474 23.9098 24.1952 24.4977 24.8102 25.1303 25.5014 25.8668 26.2287 26.5873 26.93 27.2565 27.314 27.3547 27.3894 27.4285 27.4688 27.5126 27.3978 27.2874 27.173 27.0524 26.9204 26.7629 26.4952 26.1948 25.8607 25.495 25.092 24.6503 24.3932 24.0982 23.7544 23.3674 22.9394 22.4624 22.4418 22.3686 22.2451 22.0704 21.849 21.5795 21.465 21.3185 21.1553 20.9936 20.842 20.7141 20.5149 20.3509 20.2212 20.1238 20.0544 20.011 19.6532 19.3313 19.0542 18.8332 18.6738 18.5855 18.4315 18.3511 18.3403 18.3789 18.458 18.5608 18.1833 17.8296 17.4914 17.1668 16.8677 16.5871 15.8396 15.131 14.4692 13.855 13.3029 12.8213 11.9979 11.238 10.5301 9.8524 9.1956 8.5474 8.0924 7.6327 7.1771 6.721 6.2708 5.832 5.0069 4.198 3.411 2.6515 1.9188 1.2139 0.9589 0.7284 0.5273 0.3565 0.2087 0.0844 0.0143 -0.0283 -0.0361 -0.0105 0.0549 0.1564 0.3498 0.5669 0.7897 0.9987 1.1708 1.293 1.8007 2.2356 2.5928 2.8676 3.0586 3.1684 4.2882 5.3286 6.2939 7.1935 8.0239 8.803 9.4584 10.0737 10.6584 11.2237 11.7787 12.3296 12.6406 12.9395 13.2203 13.4611 13.6522 13.7833 13.7759 13.7145 13.615 13.4934 13.3709 13.2617 13.6121 13.9925 14.4006 14.8295 15.277 15.7341 15.7538 15.7799 15.8186 15.87 15.9468 16.0449 15.8309 15.6458 15.4859 15.3504 15.2397 15.1441 14.4133 13.6851 12.9371 12.1577 11.3346 10.4544 9.3251 8.1392 6.9086 5.6424 4.3616 3.0803 2.5355 2.0108 1.5173 1.0594 0.6467 0.2847 0.0755 -0.0829 -0.1918 -0.2519 -0.2777 -0.2675 -0.3193 -0.3455 -0.3473 -0.3225 -0.2834 -0.2276 -0.2363 -0.2344 -0.2227 -0.1965 -0.1677 -0.1315 -0.1322 -0.1269 -0.1129 -0.0946 -0.0749 -0.0506 -0.0431 -0.0349 -0.0239 -0.0122 -9999 -9999 -9999 -9999 -9999 -9999 -9999 -9999 -9999 -9999 -9999 -9999 -9999 -9999 -9999 -9999 -9999 -9999 -9999 -9999 -9999 -9999 -9999 -9999 -9999 -9999 -9999 -9999 -9999 -9999 -9999 -9999 -9999 -9999 -9999 -9999 -9999 -9999 -9999 -9999 -9999 -9999 -9999 -9999 -9999 -9999 -9999 -9999 -9999 -9999 -9999 -9999 -9999 -9999 -9999 -9999 -9999 -9999 -9999 -9999 -9999 -9999 -9999 -9999 -9999 -9999 -9999 -9999 -9999 -9999 -9999 -9999 -9999 -9999 -9999 -9999 -9999 -9999 -9999 -9999 -9999 -9999 -9999 -9999 -9999 -9999 -9999
